X Y D
2500.0000 1100.0000 108.2505
2500.0000 1150.0000 101.1916
5000.0000 1150.0000 218.8375
2500.0000 1200.0000 94.4909
5000.0000 1200.0000 211.1828
7500.0000 1200.0000 334.6237
2500.0000 1250.0000 94.8331
5000.0000 1250.0000 208.4941
7500.0000 1250.0000 325.9268
2500.0000 1300.0000 94.9764
5000.0000 1300.0000 207.2204
7500.0000 1300.0000 321.2780
2500.0000 1350.0000 94.9786
5000.0000 1350.0000 206.2202
7500.0000 1350.0000 318.2320
2500.0000 1400.0000 94.9300
5000.0000 1400.0000 205.1966
7500.0000 1400.0000 315.7301
2500.0000 1450.0000 94.8556
5000.0000 1450.0000 204.1263
7500.0000 1450.0000 313.3450
2500.0000 1500.0000 94.7822
5000.0000 1500.0000 203.0525
7500.0000 1500.0000 310.9422
2500.0000 1550.0000 94.7106
5000.0000 1550.0000 202.0177
7500.0000 1550.0000 308.5137
2500.0000 1600.0000 94.6484
5000.0000 1600.0000 201.0492
7500.0000 1600.0000 306.0965
2500.0000 1650.0000 94.5921
5000.0000 1650.0000 200.1601
7500.0000 1650.0000 303.7346
2500.0000 1700.0000 94.5445
5000.0000 1700.0000 199.3537
7500.0000 1700.0000 301.4647
2500.0000 1750.0000 94.5022
5000.0000 1750.0000 198.6274
7500.0000 1750.0000 299.3118
2500.0000 1800.0000 94.4663
5000.0000 1800.0000 197.9757
7500.0000 1800.0000 297.2903
2500.0000 1850.0000 94.4345
5000.0000 1850.0000 197.3915
7500.0000 1850.0000 295.4056
2500.0000 1900.0000 94.4074
5000.0000 1900.0000 196.8679
7500.0000 1900.0000 293.6576
2500.0000 1950.0000 94.3832
5000.0000 1950.0000 196.3978
7500.0000 1950.0000 292.0416
2500.0000 2000.0000 94.3624
5000.0000 2000.0000 195.9751
7500.0000 2000.0000 290.5507
2500.0000 2050.0000 94.3437
5000.0000 2050.0000 195.5940
7500.0000 2050.0000 289.1770
2500.0000 2100.0000 94.3274
5000.0000 2100.0000 195.2495
7500.0000 2100.0000 287.9113
2500.0000 2150.0000 94.3128
5000.0000 2150.0000 194.9373
7500.0000 2150.0000 286.7451
2500.0000 2200.0000 94.2999
5000.0000 2200.0000 194.6535
7500.0000 2200.0000 285.6699
2500.0000 2250.0000 94.2882
5000.0000 2250.0000 194.3948
7500.0000 2250.0000 284.6778
2500.0000 2300.0000 94.2779
5000.0000 2300.0000 194.1584
7500.0000 2300.0000 283.7612
2500.0000 2350.0000 94.2685
5000.0000 2350.0000 193.9417
7500.0000 2350.0000 282.9136
2500.0000 2400.0000 94.2601
5000.0000 2400.0000 193.7426
7500.0000 2400.0000 282.1285
2500.0000 2450.0000 94.2523
5000.0000 2450.0000 193.5593
7500.0000 2450.0000 281.4007
2500.0000 2500.0000 94.2454
5000.0000 2500.0000 193.3901
7500.0000 2500.0000 280.7248
2500.0000 2550.0000 94.2390
5000.0000 2550.0000 193.2335
7500.0000 2550.0000 280.0963
2500.0000 2600.0000 94.2332
5000.0000 2600.0000 193.0884
7500.0000 2600.0000 279.5113
2500.0000 2650.0000 94.2278
5000.0000 2650.0000 192.9536
7500.0000 2650.0000 278.9659
2500.0000 2700.0000 94.2230
5000.0000 2700.0000 192.8282
7500.0000 2700.0000 278.4570
2500.0000 2750.0000 94.2184
5000.0000 2750.0000 192.7113
7500.0000 2750.0000 277.9812
2500.0000 2800.0000 94.2143
5000.0000 2800.0000 192.6022
7500.0000 2800.0000 277.5365
2500.0000 2850.0000 94.2104
5000.0000 2850.0000 192.5002
7500.0000 2850.0000 277.1197
2500.0000 2900.0000 94.2069
5000.0000 2900.0000 192.4048
7500.0000 2900.0000 276.7293
2500.0000 2950.0000 94.2035
5000.0000 2950.0000 192.3153
7500.0000 2950.0000 276.3629
2500.0000 3000.0000 94.2005
5000.0000 3000.0000 192.2314
7500.0000 3000.0000 276.0189
2500.0000 3050.0000 94.1976
5000.0000 3050.0000 192.1526
7500.0000 3050.0000 275.6957
2500.0000 3100.0000 94.1949
5000.0000 3100.0000 192.0785
7500.0000 3100.0000 275.3916
2500.0000 3150.0000 94.1924
5000.0000 3150.0000 192.0088
7500.0000 3150.0000 275.1056
2500.0000 3200.0000 94.1901
5000.0000 3200.0000 191.9432
7500.0000 3200.0000 274.8363
2500.0000 3250.0000 94.1879
5000.0000 3250.0000 191.8813
7500.0000 3250.0000 274.5825
2500.0000 3300.0000 94.1859
5000.0000 3300.0000 191.8231
7500.0000 3300.0000 274.3434
2500.0000 3350.0000 94.1840
5000.0000 3350.0000 191.7682
7500.0000 3350.0000 274.1181
2500.0000 3400.0000 94.1822
5000.0000 3400.0000 191.7164
7500.0000 3400.0000 273.9056
2500.0000 3450.0000 94.1805
5000.0000 3450.0000 191.6675
7500.0000 3450.0000 273.7052
2500.0000 3500.0000 94.1789
5000.0000 3500.0000 191.6214
7500.0000 3500.0000 273.5162
2500.0000 3550.0000 94.1774
5000.0000 3550.0000 191.5779
7500.0000 3550.0000 273.3380
2500.0000 3600.0000 94.1761
5000.0000 3600.0000 191.5369
7500.0000 3600.0000 273.1699
2500.0000 3650.0000 94.1748
5000.0000 3650.0000 191.4982
7500.0000 3650.0000 273.0114
2500.0000 3700.0000 94.1735
5000.0000 3700.0000 191.4617
7500.0000 3700.0000 272.8620
2500.0000 3750.0000 94.1724
5000.0000 3750.0000 191.4272
7500.0000 3750.0000 272.7214
2500.0000 3800.0000 94.1713
5000.0000 3800.0000 191.3948
7500.0000 3800.0000 272.5889
2500.0000 3850.0000 94.1703
5000.0000 3850.0000 191.3643
7500.0000 3850.0000 272.4642
2500.0000 3900.0000 94.1693
5000.0000 3900.0000 191.3356
7500.0000 3900.0000 272.3471
2500.0000 3950.0000 94.1684
5000.0000 3950.0000 191.3087
7500.0000 3950.0000 272.2371
2500.0000 4000.0000 94.1676
5000.0000 4000.0000 191.2834
7500.0000 4000.0000 272.1340
2500.0000 4050.0000 94.1668
5000.0000 4050.0000 191.2597
7500.0000 4050.0000 272.0374
2500.0000 4100.0000 94.1661
5000.0000 4100.0000 191.2375
7500.0000 4100.0000 271.9471
2500.0000 4150.0000 94.1654
5000.0000 4150.0000 191.2168
7500.0000 4150.0000 271.8629
2500.0000 4200.0000 94.1648
5000.0000 4200.0000 191.1976
7500.0000 4200.0000 271.7845
2500.0000 4250.0000 94.1642
5000.0000 4250.0000 191.1797
7500.0000 4250.0000 271.7119
2500.0000 4300.0000 94.1637
5000.0000 4300.0000 191.1632
7500.0000 4300.0000 271.6446
2500.0000 4350.0000 94.1632
5000.0000 4350.0000 191.1479
7500.0000 4350.0000 271.5826
2500.0000 4400.0000 94.1627
5000.0000 4400.0000 191.1340
7500.0000 4400.0000 271.5259
2500.0000 4450.0000 94.1623
5000.0000 4450.0000 191.1212
7500.0000 4450.0000 271.4741
2500.0000 4500.0000 94.1619
5000.0000 4500.0000 191.1097
7500.0000 4500.0000 271.4273
2500.0000 4550.0000 94.1616
5000.0000 4550.0000 191.0993
7500.0000 4550.0000 271.3852
2500.0000 4600.0000 94.1613
5000.0000 4600.0000 191.0901
7500.0000 4600.0000 271.3478
2500.0000 4650.0000 94.1610
5000.0000 4650.0000 191.0820
7500.0000 4650.0000 271.3150
2500.0000 4700.0000 94.1608
5000.0000 4700.0000 191.0751
7500.0000 4700.0000 271.2867
2500.0000 4750.0000 94.1606
5000.0000 4750.0000 191.0692
7500.0000 4750.0000 271.2629
2500.0000 4800.0000 94.1605
5000.0000 4800.0000 191.0644
7500.0000 4800.0000 271.2434
2500.0000 4850.0000 94.1604
5000.0000 4850.0000 191.0607
7500.0000 4850.0000 271.2283
2500.0000 4900.0000 94.1603
5000.0000 4900.0000 191.0580
7500.0000 4900.0000 271.2177
2500.0000 4950.0000 94.1602
5000.0000 4950.0000 191.0564
7500.0000 4950.0000 271.2111
2500.0000 5000.0000 94.1602
5000.0000 5000.0000 191.0559
7500.0000 5000.0000 271.2090
2500.0000 5050.0000 94.1602
5000.0000 5050.0000 191.0564
7500.0000 5050.0000 271.2111
2500.0000 5100.0000 94.1603
5000.0000 5100.0000 191.0580
7500.0000 5100.0000 271.2175
2500.0000 5150.0000 94.1604
5000.0000 5150.0000 191.0607
7500.0000 5150.0000 271.2282
2500.0000 5200.0000 94.1605
5000.0000 5200.0000 191.0644
7500.0000 5200.0000 271.2432
2500.0000 5250.0000 94.1606
5000.0000 5250.0000 191.0691
7500.0000 5250.0000 271.2626
2500.0000 5300.0000 94.1608
5000.0000 5300.0000 191.0750
7500.0000 5300.0000 271.2863
2500.0000 5350.0000 94.1610
5000.0000 5350.0000 191.0820
7500.0000 5350.0000 271.3146
2500.0000 5400.0000 94.1613
5000.0000 5400.0000 191.0900
7500.0000 5400.0000 271.3473
2500.0000 5450.0000 94.1616
5000.0000 5450.0000 191.0992
7500.0000 5450.0000 271.3847
2500.0000 5500.0000 94.1619
5000.0000 5500.0000 191.1096
7500.0000 5500.0000 271.4268
2500.0000 5550.0000 94.1623
5000.0000 5550.0000 191.1211
7500.0000 5550.0000 271.4735
2500.0000 5600.0000 94.1627
5000.0000 5600.0000 191.1339
7500.0000 5600.0000 271.5253
2500.0000 5650.0000 94.1632
5000.0000 5650.0000 191.1478
7500.0000 5650.0000 271.5819
2500.0000 5700.0000 94.1637
5000.0000 5700.0000 191.1630
7500.0000 5700.0000 271.6438
2500.0000 5750.0000 94.1642
5000.0000 5750.0000 191.1796
7500.0000 5750.0000 271.7110
2500.0000 5800.0000 94.1648
5000.0000 5800.0000 191.1974
7500.0000 5800.0000 271.7836
2500.0000 5850.0000 94.1654
5000.0000 5850.0000 191.2166
7500.0000 5850.0000 271.8618
2500.0000 5900.0000 94.1661
5000.0000 5900.0000 191.2373
7500.0000 5900.0000 271.9460
2500.0000 5950.0000 94.1668
5000.0000 5950.0000 191.2595
7500.0000 5950.0000 272.0362
2500.0000 6000.0000 94.1676
5000.0000 6000.0000 191.2832
7500.0000 6000.0000 272.1327
2500.0000 6050.0000 94.1684
5000.0000 6050.0000 191.3085
7500.0000 6050.0000 272.2358
2500.0000 6100.0000 94.1693
5000.0000 6100.0000 191.3354
7500.0000 6100.0000 272.3457
2500.0000 6150.0000 94.1703
5000.0000 6150.0000 191.3641
7500.0000 6150.0000 272.4628
2500.0000 6200.0000 94.1713
5000.0000 6200.0000 191.3946
7500.0000 6200.0000 272.5874
2500.0000 6250.0000 94.1724
5000.0000 6250.0000 191.4270
7500.0000 6250.0000 272.7197
2500.0000 6300.0000 94.1735
5000.0000 6300.0000 191.4614
7500.0000 6300.0000 272.8604
2500.0000 6350.0000 94.1747
5000.0000 6350.0000 191.4979
7500.0000 6350.0000 273.0096
2500.0000 6400.0000 94.1761
5000.0000 6400.0000 191.5365
7500.0000 6400.0000 273.1680
2500.0000 6450.0000 94.1774
5000.0000 6450.0000 191.5776
7500.0000 6450.0000 273.3360
2500.0000 6500.0000 94.1789
5000.0000 6500.0000 191.6211
7500.0000 6500.0000 273.5141
2500.0000 6550.0000 94.1805
5000.0000 6550.0000 191.6671
7500.0000 6550.0000 273.7030
2500.0000 6600.0000 94.1822
5000.0000 6600.0000 191.7160
7500.0000 6600.0000 273.9032
2500.0000 6650.0000 94.1840
5000.0000 6650.0000 191.7678
7500.0000 6650.0000 274.1156
2500.0000 6700.0000 94.1859
5000.0000 6700.0000 191.8227
7500.0000 6700.0000 274.3408
2500.0000 6750.0000 94.1879
5000.0000 6750.0000 191.8809
7500.0000 6750.0000 274.5798
2500.0000 6800.0000 94.1901
5000.0000 6800.0000 191.9426
7500.0000 6800.0000 274.8333
2500.0000 6850.0000 94.1924
5000.0000 6850.0000 192.0082
7500.0000 6850.0000 275.1025
2500.0000 6900.0000 94.1949
5000.0000 6900.0000 192.0779
7500.0000 6900.0000 275.3884
2500.0000 6950.0000 94.1976
5000.0000 6950.0000 192.1520
7500.0000 6950.0000 275.6922
2500.0000 7000.0000 94.2004
5000.0000 7000.0000 192.2307
7500.0000 7000.0000 276.0154
2500.0000 7050.0000 94.2035
5000.0000 7050.0000 192.3146
7500.0000 7050.0000 276.3591
2500.0000 7100.0000 94.2068
5000.0000 7100.0000 192.4040
7500.0000 7100.0000 276.7253
2500.0000 7150.0000 94.2104
5000.0000 7150.0000 192.4994
7500.0000 7150.0000 277.1156
2500.0000 7200.0000 94.2142
5000.0000 7200.0000 192.6014
7500.0000 7200.0000 277.5319
2500.0000 7250.0000 94.2184
5000.0000 7250.0000 192.7104
7500.0000 7250.0000 277.9765
2500.0000 7300.0000 94.2229
5000.0000 7300.0000 192.8272
7500.0000 7300.0000 278.4519
2500.0000 7350.0000 94.2278
5000.0000 7350.0000 192.9526
7500.0000 7350.0000 278.9605
2500.0000 7400.0000 94.2332
5000.0000 7400.0000 193.0873
7500.0000 7400.0000 279.5055
2500.0000 7450.0000 94.2389
5000.0000 7450.0000 193.2323
7500.0000 7450.0000 280.0902
2500.0000 7500.0000 94.2454
5000.0000 7500.0000 193.3888
7500.0000 7500.0000 280.7183
2500.0000 7550.0000 94.2523
5000.0000 7550.0000 193.5579
7500.0000 7550.0000 281.3938
2500.0000 7600.0000 94.2600
5000.0000 7600.0000 193.7411
7500.0000 7600.0000 282.1211
2500.0000 7650.0000 94.2684
5000.0000 7650.0000 193.9400
7500.0000 7650.0000 282.9057
2500.0000 7700.0000 94.2779
5000.0000 7700.0000 194.1566
7500.0000 7700.0000 283.7528
2500.0000 7750.0000 94.2882
5000.0000 7750.0000 194.3928
7500.0000 7750.0000 284.6687
2500.0000 7800.0000 94.2998
5000.0000 7800.0000 194.6513
7500.0000 7800.0000 285.6601
2500.0000 7850.0000 94.3127
5000.0000 7850.0000 194.9349
7500.0000 7850.0000 286.7346
2500.0000 7900.0000 94.3273
5000.0000 7900.0000 195.2469
7500.0000 7900.0000 287.8999
2500.0000 7950.0000 94.3435
5000.0000 7950.0000 195.5911
7500.0000 7950.0000 289.1648
2500.0000 8000.0000 94.3622
5000.0000 8000.0000 195.9719
7500.0000 8000.0000 290.5377
2500.0000 8050.0000 94.3830
5000.0000 8050.0000 196.3943
7500.0000 8050.0000 292.0275
2500.0000 8100.0000 94.4072
5000.0000 8100.0000 196.8639
7500.0000 8100.0000 293.6424
2500.0000 8150.0000 94.4343
5000.0000 8150.0000 197.3871
7500.0000 8150.0000 295.3893
2500.0000 8200.0000 94.4660
5000.0000 8200.0000 197.9707
7500.0000 8200.0000 297.2729
2500.0000 8250.0000 94.5019
5000.0000 8250.0000 198.6219
7500.0000 8250.0000 299.2933
2500.0000 8300.0000 94.5441
5000.0000 8300.0000 199.3476
7500.0000 8300.0000 301.4451
2500.0000 8350.0000 94.5918
5000.0000 8350.0000 200.1533
7500.0000 8350.0000 303.7141
2500.0000 8400.0000 94.6479
5000.0000 8400.0000 201.0418
7500.0000 8400.0000 306.0754
2500.0000 8450.0000 94.7101
5000.0000 8450.0000 202.0097
7500.0000 8450.0000 308.4923
2500.0000 8500.0000 94.7816
5000.0000 8500.0000 203.0441
7500.0000 8500.0000 310.9209
2500.0000 8550.0000 94.8551
5000.0000 8550.0000 204.1177
7500.0000 8550.0000 313.3238
2500.0000 8600.0000 94.9295
5000.0000 8600.0000 205.1882
7500.0000 8600.0000 315.7089
2500.0000 8650.0000 94.9784
5000.0000 8650.0000 206.2123
7500.0000 8650.0000 318.2085
2500.0000 8700.0000 94.9768
5000.0000 8700.0000 207.2121
7500.0000 8700.0000 321.2472
2500.0000 8750.0000 94.8351
5000.0000 8750.0000 208.4807
7500.0000 8750.0000 325.8759
2500.0000 8800.0000 94.4744
5000.0000 8800.0000 211.1491
7500.0000 8800.0000 334.5241
2500.0000 8850.0000 101.1432
5000.0000 8850.0000 218.7365
2500.0000 8900.0000 108.1786
             0
         10000
             0
         10000
       94.1602
             0
