X Y W
2500.0000 1100.0000 193.0998
2500.0000 1150.0000 185.7982
5000.0000 1150.0000 328.8532
2500.0000 1200.0000 177.4856
5000.0000 1200.0000 323.8088
7500.0000 1200.0000 477.1820
2500.0000 1250.0000 176.4618
5000.0000 1250.0000 321.1246
7500.0000 1250.0000 471.9906
2500.0000 1300.0000 175.6036
5000.0000 1300.0000 318.9308
7500.0000 1300.0000 468.6581
2500.0000 1350.0000 174.9020
5000.0000 1350.0000 316.7851
7500.0000 1350.0000 465.7810
2500.0000 1400.0000 174.3445
5000.0000 1400.0000 314.6604
7500.0000 1400.0000 462.8730
2500.0000 1450.0000 173.9003
5000.0000 1450.0000 312.6204
7500.0000 1450.0000 459.8214
2500.0000 1500.0000 173.5476
5000.0000 1500.0000 310.7221
7500.0000 1500.0000 456.6622
2500.0000 1550.0000 173.2637
5000.0000 1550.0000 308.9956
7500.0000 1550.0000 453.4758
2500.0000 1600.0000 173.0345
5000.0000 1600.0000 307.4484
7500.0000 1600.0000 450.3422
2500.0000 1650.0000 172.8465
5000.0000 1650.0000 306.0739
7500.0000 1650.0000 447.3238
2500.0000 1700.0000 172.6915
5000.0000 1700.0000 304.8585
7500.0000 1700.0000 444.4622
2500.0000 1750.0000 172.5620
5000.0000 1750.0000 303.7851
7500.0000 1750.0000 441.7807
2500.0000 1800.0000 172.4533
5000.0000 1800.0000 302.8370
7500.0000 1800.0000 439.2890
2500.0000 1850.0000 172.3607
5000.0000 1850.0000 301.9979
7500.0000 1850.0000 436.9868
2500.0000 1900.0000 172.2818
5000.0000 1900.0000 301.2534
7500.0000 1900.0000 434.8679
2500.0000 1950.0000 172.2135
5000.0000 1950.0000 300.5908
7500.0000 1950.0000 432.9218
2500.0000 2000.0000 172.1544
5000.0000 2000.0000 299.9991
7500.0000 2000.0000 431.1367
2500.0000 2050.0000 172.1027
5000.0000 2050.0000 299.4688
7500.0000 2050.0000 429.4998
2500.0000 2100.0000 172.0573
5000.0000 2100.0000 298.9919
7500.0000 2100.0000 427.9982
2500.0000 2150.0000 172.0172
5000.0000 2150.0000 298.5614
7500.0000 2150.0000 426.6198
2500.0000 2200.0000 171.9816
5000.0000 2200.0000 298.1716
7500.0000 2200.0000 425.3532
2500.0000 2250.0000 171.9498
5000.0000 2250.0000 297.8174
7500.0000 2250.0000 424.1879
2500.0000 2300.0000 171.9213
5000.0000 2300.0000 297.4945
7500.0000 2300.0000 423.1141
2500.0000 2350.0000 171.8957
5000.0000 2350.0000 297.1993
7500.0000 2350.0000 422.1235
2500.0000 2400.0000 171.8725
5000.0000 2400.0000 296.9287
7500.0000 2400.0000 421.2078
2500.0000 2450.0000 171.8515
5000.0000 2450.0000 296.6798
7500.0000 2450.0000 420.3605
2500.0000 2500.0000 171.8324
5000.0000 2500.0000 296.4505
7500.0000 2500.0000 419.5750
2500.0000 2550.0000 171.8150
5000.0000 2550.0000 296.2386
7500.0000 2550.0000 418.8457
2500.0000 2600.0000 171.7990
5000.0000 2600.0000 296.0424
7500.0000 2600.0000 418.1678
2500.0000 2650.0000 171.7844
5000.0000 2650.0000 295.8604
7500.0000 2650.0000 417.5365
2500.0000 2700.0000 171.7709
5000.0000 2700.0000 295.6912
7500.0000 2700.0000 416.9482
2500.0000 2750.0000 171.7585
5000.0000 2750.0000 295.5336
7500.0000 2750.0000 416.3988
2500.0000 2800.0000 171.7470
5000.0000 2800.0000 295.3866
7500.0000 2800.0000 415.8856
2500.0000 2850.0000 171.7364
5000.0000 2850.0000 295.2493
7500.0000 2850.0000 415.4052
2500.0000 2900.0000 171.7265
5000.0000 2900.0000 295.1209
7500.0000 2900.0000 414.9555
2500.0000 2950.0000 171.7173
5000.0000 2950.0000 295.0006
7500.0000 2950.0000 414.5337
2500.0000 3000.0000 171.7088
5000.0000 3000.0000 294.8878
7500.0000 3000.0000 414.1379
2500.0000 3050.0000 171.7008
5000.0000 3050.0000 294.7818
7500.0000 3050.0000 413.7663
2500.0000 3100.0000 171.6934
5000.0000 3100.0000 294.6823
7500.0000 3100.0000 413.4169
2500.0000 3150.0000 171.6865
5000.0000 3150.0000 294.5887
7500.0000 3150.0000 413.0884
2500.0000 3200.0000 171.6800
5000.0000 3200.0000 294.5006
7500.0000 3200.0000 412.7792
2500.0000 3250.0000 171.6739
5000.0000 3250.0000 294.4176
7500.0000 3250.0000 412.4880
2500.0000 3300.0000 171.6682
5000.0000 3300.0000 294.3395
7500.0000 3300.0000 412.2137
2500.0000 3350.0000 171.6629
5000.0000 3350.0000 294.2658
7500.0000 3350.0000 411.9553
2500.0000 3400.0000 171.6579
5000.0000 3400.0000 294.1963
7500.0000 3400.0000 411.7116
2500.0000 3450.0000 171.6531
5000.0000 3450.0000 294.1308
7500.0000 3450.0000 411.4820
2500.0000 3500.0000 171.6487
5000.0000 3500.0000 294.0690
7500.0000 3500.0000 411.2654
2500.0000 3550.0000 171.6445
5000.0000 3550.0000 294.0106
7500.0000 3550.0000 411.0612
2500.0000 3600.0000 171.6406
5000.0000 3600.0000 293.9556
7500.0000 3600.0000 410.8687
2500.0000 3650.0000 171.6370
5000.0000 3650.0000 293.9037
7500.0000 3650.0000 410.6872
2500.0000 3700.0000 171.6335
5000.0000 3700.0000 293.8548
7500.0000 3700.0000 410.5161
2500.0000 3750.0000 171.6303
5000.0000 3750.0000 293.8087
7500.0000 3750.0000 410.3551
2500.0000 3800.0000 171.6272
5000.0000 3800.0000 293.7652
7500.0000 3800.0000 410.2035
2500.0000 3850.0000 171.6243
5000.0000 3850.0000 293.7244
7500.0000 3850.0000 410.0608
2500.0000 3900.0000 171.6216
5000.0000 3900.0000 293.6859
7500.0000 3900.0000 409.9267
2500.0000 3950.0000 171.6191
5000.0000 3950.0000 293.6498
7500.0000 3950.0000 409.8008
2500.0000 4000.0000 171.6168
5000.0000 4000.0000 293.6159
7500.0000 4000.0000 409.6828
2500.0000 4050.0000 171.6146
5000.0000 4050.0000 293.5842
7500.0000 4050.0000 409.5723
2500.0000 4100.0000 171.6125
5000.0000 4100.0000 293.5545
7500.0000 4100.0000 409.4690
2500.0000 4150.0000 171.6106
5000.0000 4150.0000 293.5268
7500.0000 4150.0000 409.3726
2500.0000 4200.0000 171.6088
5000.0000 4200.0000 293.5010
7500.0000 4200.0000 409.2830
2500.0000 4250.0000 171.6072
5000.0000 4250.0000 293.4771
7500.0000 4250.0000 409.1999
2500.0000 4300.0000 171.6056
5000.0000 4300.0000 293.4549
7500.0000 4300.0000 409.1229
2500.0000 4350.0000 171.6042
5000.0000 4350.0000 293.4345
7500.0000 4350.0000 409.0520
2500.0000 4400.0000 171.6029
5000.0000 4400.0000 293.4158
7500.0000 4400.0000 408.9871
2500.0000 4450.0000 171.6018
5000.0000 4450.0000 293.3988
7500.0000 4450.0000 408.9280
2500.0000 4500.0000 171.6007
5000.0000 4500.0000 293.3833
7500.0000 4500.0000 408.8744
2500.0000 4550.0000 171.5997
5000.0000 4550.0000 293.3694
7500.0000 4550.0000 408.8262
2500.0000 4600.0000 171.5989
5000.0000 4600.0000 293.3571
7500.0000 4600.0000 408.7835
2500.0000 4650.0000 171.5982
5000.0000 4650.0000 293.3463
7500.0000 4650.0000 408.7459
2500.0000 4700.0000 171.5975
5000.0000 4700.0000 293.3369
7500.0000 4700.0000 408.7136
2500.0000 4750.0000 171.5970
5000.0000 4750.0000 293.3291
7500.0000 4750.0000 408.6864
2500.0000 4800.0000 171.5965
5000.0000 4800.0000 293.3227
7500.0000 4800.0000 408.6641
2500.0000 4850.0000 171.5962
5000.0000 4850.0000 293.3177
7500.0000 4850.0000 408.6468
2500.0000 4900.0000 171.5960
5000.0000 4900.0000 293.3142
7500.0000 4900.0000 408.6346
2500.0000 4950.0000 171.5958
5000.0000 4950.0000 293.3120
7500.0000 4950.0000 408.6272
2500.0000 5000.0000 171.5958
5000.0000 5000.0000 293.3113
7500.0000 5000.0000 408.6248
2500.0000 5050.0000 171.5958
5000.0000 5050.0000 293.3120
7500.0000 5050.0000 408.6272
2500.0000 5100.0000 171.5960
5000.0000 5100.0000 293.3141
7500.0000 5100.0000 408.6345
2500.0000 5150.0000 171.5962
5000.0000 5150.0000 293.3177
7500.0000 5150.0000 408.6467
2500.0000 5200.0000 171.5965
5000.0000 5200.0000 293.3226
7500.0000 5200.0000 408.6638
2500.0000 5250.0000 171.5970
5000.0000 5250.0000 293.3290
7500.0000 5250.0000 408.6860
2500.0000 5300.0000 171.5975
5000.0000 5300.0000 293.3369
7500.0000 5300.0000 408.7132
2500.0000 5350.0000 171.5982
5000.0000 5350.0000 293.3462
7500.0000 5350.0000 408.7455
2500.0000 5400.0000 171.5989
5000.0000 5400.0000 293.3570
7500.0000 5400.0000 408.7829
2500.0000 5450.0000 171.5997
5000.0000 5450.0000 293.3693
7500.0000 5450.0000 408.8257
2500.0000 5500.0000 171.6007
5000.0000 5500.0000 293.3832
7500.0000 5500.0000 408.8738
2500.0000 5550.0000 171.6018
5000.0000 5550.0000 293.3986
7500.0000 5550.0000 408.9272
2500.0000 5600.0000 171.6029
5000.0000 5600.0000 293.4157
7500.0000 5600.0000 408.9864
2500.0000 5650.0000 171.6042
5000.0000 5650.0000 293.4344
7500.0000 5650.0000 409.0512
2500.0000 5700.0000 171.6056
5000.0000 5700.0000 293.4548
7500.0000 5700.0000 409.1220
2500.0000 5750.0000 171.6071
5000.0000 5750.0000 293.4769
7500.0000 5750.0000 409.1989
2500.0000 5800.0000 171.6088
5000.0000 5800.0000 293.5008
7500.0000 5800.0000 409.2819
2500.0000 5850.0000 171.6106
5000.0000 5850.0000 293.5265
7500.0000 5850.0000 409.3714
2500.0000 5900.0000 171.6125
5000.0000 5900.0000 293.5542
7500.0000 5900.0000 409.4678
2500.0000 5950.0000 171.6146
5000.0000 5950.0000 293.5839
7500.0000 5950.0000 409.5709
2500.0000 6000.0000 171.6168
5000.0000 6000.0000 293.6156
7500.0000 6000.0000 409.6814
2500.0000 6050.0000 171.6191
5000.0000 6050.0000 293.6495
7500.0000 6050.0000 409.7993
2500.0000 6100.0000 171.6216
5000.0000 6100.0000 293.6856
7500.0000 6100.0000 409.9251
2500.0000 6150.0000 171.6243
5000.0000 6150.0000 293.7240
7500.0000 6150.0000 410.0591
2500.0000 6200.0000 171.6272
5000.0000 6200.0000 293.7649
7500.0000 6200.0000 410.2017
2500.0000 6250.0000 171.6302
5000.0000 6250.0000 293.8083
7500.0000 6250.0000 410.3532
2500.0000 6300.0000 171.6335
5000.0000 6300.0000 293.8544
7500.0000 6300.0000 410.5142
2500.0000 6350.0000 171.6369
5000.0000 6350.0000 293.9033
7500.0000 6350.0000 410.6851
2500.0000 6400.0000 171.6406
5000.0000 6400.0000 293.9552
7500.0000 6400.0000 410.8665
2500.0000 6450.0000 171.6445
5000.0000 6450.0000 294.0102
7500.0000 6450.0000 411.0589
2500.0000 6500.0000 171.6487
5000.0000 6500.0000 294.0685
7500.0000 6500.0000 411.2630
2500.0000 6550.0000 171.6531
5000.0000 6550.0000 294.1303
7500.0000 6550.0000 411.4794
2500.0000 6600.0000 171.6578
5000.0000 6600.0000 294.1958
7500.0000 6600.0000 411.7089
2500.0000 6650.0000 171.6628
5000.0000 6650.0000 294.2652
7500.0000 6650.0000 411.9524
2500.0000 6700.0000 171.6682
5000.0000 6700.0000 294.3389
7500.0000 6700.0000 412.2107
2500.0000 6750.0000 171.6739
5000.0000 6750.0000 294.4170
7500.0000 6750.0000 412.4848
2500.0000 6800.0000 171.6800
5000.0000 6800.0000 294.4999
7500.0000 6800.0000 412.7757
2500.0000 6850.0000 171.6864
5000.0000 6850.0000 294.5880
7500.0000 6850.0000 413.0848
2500.0000 6900.0000 171.6934
5000.0000 6900.0000 294.6815
7500.0000 6900.0000 413.4132
2500.0000 6950.0000 171.7008
5000.0000 6950.0000 294.7810
7500.0000 6950.0000 413.7622
2500.0000 7000.0000 171.7088
5000.0000 7000.0000 294.8869
7500.0000 7000.0000 414.1338
2500.0000 7050.0000 171.7173
5000.0000 7050.0000 294.9996
7500.0000 7050.0000 414.5292
2500.0000 7100.0000 171.7265
5000.0000 7100.0000 295.1199
7500.0000 7100.0000 414.9508
2500.0000 7150.0000 171.7363
5000.0000 7150.0000 295.2483
7500.0000 7150.0000 415.4003
2500.0000 7200.0000 171.7469
5000.0000 7200.0000 295.3855
7500.0000 7200.0000 415.8803
2500.0000 7250.0000 171.7584
5000.0000 7250.0000 295.5324
7500.0000 7250.0000 416.3932
2500.0000 7300.0000 171.7708
5000.0000 7300.0000 295.6899
7500.0000 7300.0000 416.9422
2500.0000 7350.0000 171.7843
5000.0000 7350.0000 295.8590
7500.0000 7350.0000 417.5303
2500.0000 7400.0000 171.7989
5000.0000 7400.0000 296.0409
7500.0000 7400.0000 418.1610
2500.0000 7450.0000 171.8149
5000.0000 7450.0000 296.2369
7500.0000 7450.0000 418.8386
2500.0000 7500.0000 171.8323
5000.0000 7500.0000 296.4487
7500.0000 7500.0000 419.5674
2500.0000 7550.0000 171.8514
5000.0000 7550.0000 296.6779
7500.0000 7550.0000 420.3524
2500.0000 7600.0000 171.8724
5000.0000 7600.0000 296.9266
7500.0000 7600.0000 421.1991
2500.0000 7650.0000 171.8955
5000.0000 7650.0000 297.1970
7500.0000 7650.0000 422.1142
2500.0000 7700.0000 171.9211
5000.0000 7700.0000 297.4920
7500.0000 7700.0000 423.1042
2500.0000 7750.0000 171.9496
5000.0000 7750.0000 297.8147
7500.0000 7750.0000 424.1772
2500.0000 7800.0000 171.9814
5000.0000 7800.0000 298.1686
7500.0000 7800.0000 425.3417
2500.0000 7850.0000 172.0169
5000.0000 7850.0000 298.5581
7500.0000 7850.0000 426.6074
2500.0000 7900.0000 172.0570
5000.0000 7900.0000 298.9883
7500.0000 7900.0000 427.9848
2500.0000 7950.0000 172.1023
5000.0000 7950.0000 299.4648
7500.0000 7950.0000 429.4853
2500.0000 8000.0000 172.1540
5000.0000 8000.0000 299.9946
7500.0000 8000.0000 431.1211
2500.0000 8050.0000 172.2131
5000.0000 8050.0000 300.5858
7500.0000 8050.0000 432.9049
2500.0000 8100.0000 172.2812
5000.0000 8100.0000 301.2478
7500.0000 8100.0000 434.8496
2500.0000 8150.0000 172.3601
5000.0000 8150.0000 301.9916
7500.0000 8150.0000 436.9670
2500.0000 8200.0000 172.4525
5000.0000 8200.0000 302.8299
7500.0000 8200.0000 439.2677
2500.0000 8250.0000 172.5611
5000.0000 8250.0000 303.7771
7500.0000 8250.0000 441.7578
2500.0000 8300.0000 172.6905
5000.0000 8300.0000 304.8493
7500.0000 8300.0000 444.4377
2500.0000 8350.0000 172.8452
5000.0000 8350.0000 306.0636
7500.0000 8350.0000 447.2979
2500.0000 8400.0000 173.0329
5000.0000 8400.0000 307.4367
7500.0000 8400.0000 450.3153
2500.0000 8450.0000 173.2618
5000.0000 8450.0000 308.9825
7500.0000 8450.0000 453.4480
2500.0000 8500.0000 173.5451
5000.0000 8500.0000 310.7076
7500.0000 8500.0000 456.6343
2500.0000 8550.0000 173.8972
5000.0000 8550.0000 312.6046
7500.0000 8550.0000 459.7940
2500.0000 8600.0000 174.3406
5000.0000 8600.0000 314.6436
7500.0000 8600.0000 462.8467
2500.0000 8650.0000 174.8971
5000.0000 8650.0000 316.7680
7500.0000 8650.0000 465.7556
2500.0000 8700.0000 175.5975
5000.0000 8700.0000 318.9136
7500.0000 8700.0000 468.6318
2500.0000 8750.0000 176.4544
5000.0000 8750.0000 321.1063
7500.0000 8750.0000 471.9566
2500.0000 8800.0000 177.4568
5000.0000 8800.0000 323.7822
7500.0000 8800.0000 477.1228
2500.0000 8850.0000 185.7381
5000.0000 8850.0000 328.7915
2500.0000 8900.0000 193.0440
             0
         10000
             0
         10000
             0
       477.182
