X Y grav
850.000 7450.000       2.965234 
850.000 7500.000       2.951097 
850.000 7550.000       2.936629 
850.000 7600.000       2.921828 
850.000 7650.000       2.906695 
850.000 7700.000       2.891228 
850.000 7750.000       2.875428 
850.000 7800.000       2.859296 
850.000 7850.000       2.842832 
850.000 7900.000       2.826038 
850.000 7950.000       2.808917 
850.000 8000.000       2.791471 
850.000 8050.000       2.773704 
850.000 8100.000       2.755620 
850.000 8150.000       2.737224 
850.000 8200.000       2.718524 
850.000 8250.000       2.699525 
850.000 8300.000       2.680237 
850.000 8350.000       2.660668 
850.000 8400.000       2.640828 
850.000 8450.000       2.620729 
850.000 8500.000       2.600383 
850.000 8550.000       2.579805 
850.000 8600.000       2.559008 
850.000 8650.000       2.538007 
850.000 8700.000       2.516821 
850.000 8750.000       2.495466 
850.000 8800.000       2.473960 
850.000 8850.000       2.452323 
850.000 8900.000       2.430574 
850.000 8950.000       2.408734 
850.000 9000.000       2.386822 
850.000 9050.000       2.364859 
850.000 9100.000       2.342866 
850.000 9150.000       2.320863 
850.000 9200.000       2.298869 
850.000 9250.000       2.276906 
850.000 9300.000       2.254990 
850.000 9350.000       2.233142 
850.000 9400.000       2.211378 
850.000 9450.000       2.189714 
850.000 9500.000       2.168167 
850.000 9550.000       2.146750 
850.000 9600.000       2.125477 
850.000 9650.000       2.104361 
850.000 9700.000       2.083413 
850.000 9750.000       2.062642 
850.000 9800.000       2.042057 
850.000 9850.000       2.021668 
850.000 9900.000       2.001480 
850.000 9950.000       1.981499 
850.000 10000.000       1.961731 
900.000   0.000       1.979559 
900.000  50.000       1.999832 
900.000 100.000       2.020334 
900.000 150.000       2.041061 
900.000 200.000       2.062007 
900.000 250.000       2.083164 
900.000 300.000       2.104525 
900.000 350.000       2.126081 
900.000 400.000       2.147820 
900.000 450.000       2.169732 
900.000 500.000       2.191804 
900.000 550.000       2.214020 
900.000 600.000       2.236366 
900.000 650.000       2.258826 
900.000 700.000       2.281381 
900.000 750.000       2.304013 
900.000 800.000       2.326702 
900.000 850.000       2.349427 
900.000 900.000       2.372167 
900.000 950.000       2.394900 
900.000 1000.000       2.417604 
900.000 1050.000       2.440258 
900.000 1100.000       2.462837 
900.000 1150.000       2.485321 
900.000 1200.000       2.507688 
900.000 1250.000       2.529915 
900.000 1300.000       2.551983 
900.000 1350.000       2.573872 
900.000 1400.000       2.595562 
900.000 1450.000       2.617036 
900.000 1500.000       2.638278 
900.000 1550.000       2.659271 
900.000 1600.000       2.680001 
900.000 1650.000       2.700456 
900.000 1700.000       2.720623 
900.000 1750.000       2.740492 
900.000 1800.000       2.760053 
900.000 1850.000       2.779298 
900.000 1900.000       2.798221 
900.000 1950.000       2.816814 
900.000 2000.000       2.835072 
900.000 2050.000       2.852993 
900.000 2100.000       2.870571 
900.000 2150.000       2.887805 
900.000 2200.000       2.904692 
900.000 2250.000       2.921233 
900.000 2300.000       2.937425 
900.000 2350.000       2.953268 
900.000 2400.000       2.968764 
900.000 2450.000       2.983913 
900.000 2500.000       2.998716 
900.000 2550.000       3.013175 
900.000 2600.000       3.027290 
900.000 2650.000       3.041065 
900.000 2700.000       3.054500 
900.000 2750.000       3.067599 
900.000 2800.000       3.080364 
900.000 2850.000       3.092797 
900.000 2900.000       3.104900 
900.000 2950.000       3.116677 
900.000 3000.000       3.128130 
900.000 3050.000       3.139262 
900.000 3100.000       3.150075 
900.000 3150.000       3.160572 
900.000 3200.000       3.170755 
900.000 3250.000       3.180628 
900.000 3300.000       3.190192 
900.000 3350.000       3.199451 
900.000 3400.000       3.208407 
900.000 3450.000       3.217061 
900.000 3500.000       3.225418 
900.000 3550.000       3.233478 
900.000 3600.000       3.241244 
900.000 3650.000       3.248718 
900.000 3700.000       3.255903 
900.000 3750.000       3.262799 
900.000 3800.000       3.269410 
900.000 3850.000       3.275738 
900.000 3900.000       3.281783 
900.000 3950.000       3.287547 
900.000 4000.000       3.293033 
900.000 4050.000       3.298241 
900.000 4100.000       3.303174 
900.000 4150.000       3.307832 
900.000 4200.000       3.312217 
900.000 4250.000       3.316330 
900.000 4300.000       3.320172 
900.000 4350.000       3.323745 
900.000 4400.000       3.327049 
900.000 4450.000       3.330085 
900.000 4500.000       3.332855 
900.000 4550.000       3.335358 
900.000 4600.000       3.337596 
900.000 4650.000       3.339569 
900.000 4700.000       3.341278 
900.000 4750.000       3.342724 
900.000 4800.000       3.343906 
900.000 4850.000       3.344825 
900.000 4900.000       3.345481 
900.000 4950.000       3.345874 
900.000 5000.000       3.346006 
900.000 5050.000       3.345874 
900.000 5100.000       3.345481 
900.000 5150.000       3.344825 
900.000 5200.000       3.343906 
900.000 5250.000       3.342724 
900.000 5300.000       3.341278 
900.000 5350.000       3.339569 
900.000 5400.000       3.337596 
900.000 5450.000       3.335358 
900.000 5500.000       3.332855 
900.000 5550.000       3.330085 
900.000 5600.000       3.327049 
900.000 5650.000       3.323745 
900.000 5700.000       3.320172 
900.000 5750.000       3.316330 
900.000 5800.000       3.312217 
900.000 5850.000       3.307832 
900.000 5900.000       3.303174 
900.000 5950.000       3.298241 
900.000 6000.000       3.293033 
900.000 6050.000       3.287547 
900.000 6100.000       3.281783 
900.000 6150.000       3.275738 
900.000 6200.000       3.269410 
900.000 6250.000       3.262799 
900.000 6300.000       3.255903 
900.000 6350.000       3.248718 
900.000 6400.000       3.241244 
900.000 6450.000       3.233478 
900.000 6500.000       3.225418 
900.000 6550.000       3.217061 
900.000 6600.000       3.208407 
900.000 6650.000       3.199451 
900.000 6700.000       3.190192 
900.000 6750.000       3.180628 
900.000 6800.000       3.170755 
900.000 6850.000       3.160572 
900.000 6900.000       3.150075 
900.000 6950.000       3.139262 
900.000 7000.000       3.128130 
900.000 7050.000       3.116677 
900.000 7100.000       3.104900 
900.000 7150.000       3.092797 
900.000 7200.000       3.080364 
900.000 7250.000       3.067599 
900.000 7300.000       3.054500 
900.000 7350.000       3.041065 
900.000 7400.000       3.027290 
900.000 7450.000       3.013175 
900.000 7500.000       2.998716 
900.000 7550.000       2.983913 
900.000 7600.000       2.968764 
900.000 7650.000       2.953268 
900.000 7700.000       2.937425 
900.000 7750.000       2.921233 
900.000 7800.000       2.904692 
900.000 7850.000       2.887805 
900.000 7900.000       2.870571 
900.000 7950.000       2.852993 
900.000 8000.000       2.835072 
900.000 8050.000       2.816814 
900.000 8100.000       2.798221 
900.000 8150.000       2.779298 
900.000 8200.000       2.760053 
900.000 8250.000       2.740492 
900.000 8300.000       2.720623 
900.000 8350.000       2.700456 
900.000 8400.000       2.680001 
900.000 8450.000       2.659271 
900.000 8500.000       2.638278 
900.000 8550.000       2.617036 
900.000 8600.000       2.595562 
900.000 8650.000       2.573872 
900.000 8700.000       2.551983 
900.000 8750.000       2.529915 
900.000 8800.000       2.507688 
900.000 8850.000       2.485321 
900.000 8900.000       2.462837 
900.000 8950.000       2.440258 
900.000 9000.000       2.417604 
900.000 9050.000       2.394900 
900.000 9100.000       2.372167 
900.000 9150.000       2.349427 
900.000 9200.000       2.326702 
900.000 9250.000       2.304013 
900.000 9300.000       2.281381 
900.000 9350.000       2.258826 
900.000 9400.000       2.236366 
900.000 9450.000       2.214020 
900.000 9500.000       2.191804 
900.000 9550.000       2.169732 
900.000 9600.000       2.147820 
900.000 9650.000       2.126081 
900.000 9700.000       2.104525 
900.000 9750.000       2.083164 
900.000 9800.000       2.062007 
900.000 9850.000       2.041061 
900.000 9900.000       2.020334 
900.000 9950.000       1.999832 
900.000 10000.000       1.979559 
950.000   0.000       1.997546 
950.000  50.000       2.018342 
950.000 100.000       2.039385 
950.000 150.000       2.060671 
950.000 200.000       2.082195 
950.000 250.000       2.103950 
950.000 300.000       2.125926 
950.000 350.000       2.148116 
950.000 400.000       2.170508 
950.000 450.000       2.193091 
950.000 500.000       2.215849 
950.000 550.000       2.238769 
950.000 600.000       2.261835 
950.000 650.000       2.285027 
950.000 700.000       2.308328 
950.000 750.000       2.331716 
950.000 800.000       2.355171 
950.000 850.000       2.378670 
950.000 900.000       2.402190 
950.000 950.000       2.425707 
950.000 1000.000       2.449197 
950.000 1050.000       2.472635 
950.000 1100.000       2.495998 
950.000 1150.000       2.519260 
950.000 1200.000       2.542398 
950.000 1250.000       2.565388 
950.000 1300.000       2.588209 
950.000 1350.000       2.610839 
950.000 1400.000       2.633257 
950.000 1450.000       2.655445 
950.000 1500.000       2.677384 
950.000 1550.000       2.699057 
950.000 1600.000       2.720450 
950.000 1650.000       2.741549 
950.000 1700.000       2.762341 
950.000 1750.000       2.782816 
950.000 1800.000       2.802964 
950.000 1850.000       2.822776 
950.000 1900.000       2.842246 
950.000 1950.000       2.861367 
950.000 2000.000       2.880135 
950.000 2050.000       2.898545 
950.000 2100.000       2.916596 
950.000 2150.000       2.934283 
950.000 2200.000       2.951608 
950.000 2250.000       2.968567 
950.000 2300.000       2.985162 
950.000 2350.000       3.001393 
950.000 2400.000       3.017260 
950.000 2450.000       3.032765 
950.000 2500.000       3.047910 
950.000 2550.000       3.062697 
950.000 2600.000       3.077127 
950.000 2650.000       3.091204 
950.000 2700.000       3.104929 
950.000 2750.000       3.118306 
950.000 2800.000       3.131337 
950.000 2850.000       3.144025 
950.000 2900.000       3.156374 
950.000 2950.000       3.168386 
950.000 3000.000       3.180064 
950.000 3050.000       3.191411 
950.000 3100.000       3.202431 
950.000 3150.000       3.213126 
950.000 3200.000       3.223500 
950.000 3250.000       3.233554 
950.000 3300.000       3.243293 
950.000 3350.000       3.252718 
950.000 3400.000       3.261833 
950.000 3450.000       3.270640 
950.000 3500.000       3.279142 
950.000 3550.000       3.287341 
950.000 3600.000       3.295240 
950.000 3650.000       3.302841 
950.000 3700.000       3.310146 
950.000 3750.000       3.317158 
950.000 3800.000       3.323878 
950.000 3850.000       3.330309 
950.000 3900.000       3.336453 
950.000 3950.000       3.342311 
950.000 4000.000       3.347884 
950.000 4050.000       3.353176 
950.000 4100.000       3.358187 
950.000 4150.000       3.362919 
950.000 4200.000       3.367372 
950.000 4250.000       3.371550 
950.000 4300.000       3.375452 
950.000 4350.000       3.379080 
950.000 4400.000       3.382435 
950.000 4450.000       3.385519 
950.000 4500.000       3.388330 
950.000 4550.000       3.390872 
950.000 4600.000       3.393144 
950.000 4650.000       3.395148 
950.000 4700.000       3.396883 
950.000 4750.000       3.398350 
950.000 4800.000       3.399550 
950.000 4850.000       3.400483 
950.000 4900.000       3.401149 
950.000 4950.000       3.401548 
950.000 5000.000       3.401682 
950.000 5050.000       3.401548 
950.000 5100.000       3.401149 
950.000 5150.000       3.400483 
950.000 5200.000       3.399550 
950.000 5250.000       3.398350 
950.000 5300.000       3.396883 
950.000 5350.000       3.395148 
950.000 5400.000       3.393144 
950.000 5450.000       3.390872 
950.000 5500.000       3.388330 
950.000 5550.000       3.385519 
950.000 5600.000       3.382435 
950.000 5650.000       3.379080 
950.000 5700.000       3.375452 
950.000 5750.000       3.371550 
950.000 5800.000       3.367372 
950.000 5850.000       3.362919 
950.000 5900.000       3.358187 
950.000 5950.000       3.353176 
950.000 6000.000       3.347884 
950.000 6050.000       3.342311 
950.000 6100.000       3.336453 
950.000 6150.000       3.330309 
950.000 6200.000       3.323878 
950.000 6250.000       3.317158 
950.000 6300.000       3.310146 
950.000 6350.000       3.302841 
950.000 6400.000       3.295240 
950.000 6450.000       3.287341 
950.000 6500.000       3.279142 
950.000 6550.000       3.270640 
950.000 6600.000       3.261833 
950.000 6650.000       3.252718 
950.000 6700.000       3.243293 
950.000 6750.000       3.233554 
950.000 6800.000       3.223500 
950.000 6850.000       3.213126 
950.000 6900.000       3.202431 
950.000 6950.000       3.191411 
950.000 7000.000       3.180064 
950.000 7050.000       3.168386 
950.000 7100.000       3.156374 
950.000 7150.000       3.144025 
950.000 7200.000       3.131337 
950.000 7250.000       3.118306 
950.000 7300.000       3.104929 
950.000 7350.000       3.091204 
950.000 7400.000       3.077127 
950.000 7450.000       3.062697 
950.000 7500.000       3.047910 
950.000 7550.000       3.032765 
950.000 7600.000       3.017260 
950.000 7650.000       3.001393 
950.000 7700.000       2.985162 
950.000 7750.000       2.968567 
950.000 7800.000       2.951608 
950.000 7850.000       2.934283 
950.000 7900.000       2.916596 
950.000 7950.000       2.898545 
950.000 8000.000       2.880135 
950.000 8050.000       2.861367 
950.000 8100.000       2.842246 
950.000 8150.000       2.822776 
950.000 8200.000       2.802964 
950.000 8250.000       2.782816 
950.000 8300.000       2.762341 
950.000 8350.000       2.741549 
950.000 8400.000       2.720450 
950.000 8450.000       2.699057 
950.000 8500.000       2.677384 
950.000 8550.000       2.655445 
950.000 8600.000       2.633257 
950.000 8650.000       2.610839 
950.000 8700.000       2.588209 
950.000 8750.000       2.565388 
950.000 8800.000       2.542398 
950.000 8850.000       2.519260 
950.000 8900.000       2.495998 
950.000 8950.000       2.472635 
950.000 9000.000       2.449197 
950.000 9050.000       2.425707 
950.000 9100.000       2.402190 
950.000 9150.000       2.378670 
950.000 9200.000       2.355171 
950.000 9250.000       2.331716 
950.000 9300.000       2.308328 
950.000 9350.000       2.285027 
950.000 9400.000       2.261835 
950.000 9450.000       2.238769 
950.000 9500.000       2.215849 
950.000 9550.000       2.193091 
950.000 9600.000       2.170508 
950.000 9650.000       2.148116 
950.000 9700.000       2.125926 
950.000 9750.000       2.103950 
950.000 9800.000       2.082195 
950.000 9850.000       2.060671 
950.000 9900.000       2.039385 
950.000 9950.000       2.018342 
950.000 10000.000       1.997546 
1000.000   0.000       2.015688 
1000.000  50.000       2.037024 
1000.000 100.000       2.058628 
1000.000 150.000       2.080496 
1000.000 200.000       2.102621 
1000.000 250.000       2.124998 
1000.000 300.000       2.147618 
1000.000 350.000       2.170471 
1000.000 400.000       2.193547 
1000.000 450.000       2.216832 
1000.000 500.000       2.240314 
1000.000 550.000       2.263974 
1000.000 600.000       2.287797 
1000.000 650.000       2.311763 
1000.000 700.000       2.335852 
1000.000 750.000       2.360041 
1000.000 800.000       2.384307 
1000.000 850.000       2.408626 
1000.000 900.000       2.432973 
1000.000 950.000       2.457321 
1000.000 1000.000       2.481645 
1000.000 1050.000       2.505916 
1000.000 1100.000       2.530108 
1000.000 1150.000       2.554196 
1000.000 1200.000       2.578152 
1000.000 1250.000       2.601951 
1000.000 1300.000       2.625569 
1000.000 1350.000       2.648982 
1000.000 1400.000       2.672169 
1000.000 1450.000       2.695108 
1000.000 1500.000       2.717781 
1000.000 1550.000       2.740170 
1000.000 1600.000       2.762259 
1000.000 1650.000       2.784033 
1000.000 1700.000       2.805480 
1000.000 1750.000       2.826588 
1000.000 1800.000       2.847347 
1000.000 1850.000       2.867750 
1000.000 1900.000       2.887789 
1000.000 1950.000       2.907458 
1000.000 2000.000       2.926754 
1000.000 2050.000       2.945671 
1000.000 2100.000       2.964209 
1000.000 2150.000       2.982365 
1000.000 2200.000       3.000138 
1000.000 2250.000       3.017529 
1000.000 2300.000       3.034537 
1000.000 2350.000       3.051164 
1000.000 2400.000       3.067412 
1000.000 2450.000       3.083281 
1000.000 2500.000       3.098776 
1000.000 2550.000       3.113897 
1000.000 2600.000       3.128648 
1000.000 2650.000       3.143032 
1000.000 2700.000       3.157052 
1000.000 2750.000       3.170711 
1000.000 2800.000       3.184012 
1000.000 2850.000       3.196960 
1000.000 2900.000       3.209557 
1000.000 2950.000       3.221807 
1000.000 3000.000       3.233713 
1000.000 3050.000       3.245278 
1000.000 3100.000       3.256507 
1000.000 3150.000       3.267403 
1000.000 3200.000       3.277968 
1000.000 3250.000       3.288206 
1000.000 3300.000       3.298120 
1000.000 3350.000       3.307713 
1000.000 3400.000       3.316989 
1000.000 3450.000       3.325949 
1000.000 3500.000       3.334598 
1000.000 3550.000       3.342937 
1000.000 3600.000       3.350970 
1000.000 3650.000       3.358698 
1000.000 3700.000       3.366125 
1000.000 3750.000       3.373252 
1000.000 3800.000       3.380082 
1000.000 3850.000       3.386618 
1000.000 3900.000       3.392860 
1000.000 3950.000       3.398812 
1000.000 4000.000       3.404474 
1000.000 4050.000       3.409849 
1000.000 4100.000       3.414939 
1000.000 4150.000       3.419744 
1000.000 4200.000       3.424268 
1000.000 4250.000       3.428510 
1000.000 4300.000       3.432472 
1000.000 4350.000       3.436156 
1000.000 4400.000       3.439562 
1000.000 4450.000       3.442692 
1000.000 4500.000       3.445547 
1000.000 4550.000       3.448127 
1000.000 4600.000       3.450433 
1000.000 4650.000       3.452467 
1000.000 4700.000       3.454228 
1000.000 4750.000       3.455717 
1000.000 4800.000       3.456935 
1000.000 4850.000       3.457881 
1000.000 4900.000       3.458558 
1000.000 4950.000       3.458963 
1000.000 5000.000       3.459098 
1000.000 5050.000       3.458963 
1000.000 5100.000       3.458558 
1000.000 5150.000       3.457881 
1000.000 5200.000       3.456935 
1000.000 5250.000       3.455717 
1000.000 5300.000       3.454228 
1000.000 5350.000       3.452467 
1000.000 5400.000       3.450433 
1000.000 5450.000       3.448127 
1000.000 5500.000       3.445547 
1000.000 5550.000       3.442692 
1000.000 5600.000       3.439562 
1000.000 5650.000       3.436156 
1000.000 5700.000       3.432472 
1000.000 5750.000       3.428510 
1000.000 5800.000       3.424268 
1000.000 5850.000       3.419744 
1000.000 5900.000       3.414939 
1000.000 5950.000       3.409849 
1000.000 6000.000       3.404474 
1000.000 6050.000       3.398812 
1000.000 6100.000       3.392860 
1000.000 6150.000       3.386618 
1000.000 6200.000       3.380082 
1000.000 6250.000       3.373252 
1000.000 6300.000       3.366125 
1000.000 6350.000       3.358698 
1000.000 6400.000       3.350970 
1000.000 6450.000       3.342937 
1000.000 6500.000       3.334598 
1000.000 6550.000       3.325949 
1000.000 6600.000       3.316989 
1000.000 6650.000       3.307713 
1000.000 6700.000       3.298120 
1000.000 6750.000       3.288206 
1000.000 6800.000       3.277968 
1000.000 6850.000       3.267403 
1000.000 6900.000       3.256507 
1000.000 6950.000       3.245278 
1000.000 7000.000       3.233713 
1000.000 7050.000       3.221807 
1000.000 7100.000       3.209557 
1000.000 7150.000       3.196960 
1000.000 7200.000       3.184012 
1000.000 7250.000       3.170711 
1000.000 7300.000       3.157052 
1000.000 7350.000       3.143032 
1000.000 7400.000       3.128648 
1000.000 7450.000       3.113897 
1000.000 7500.000       3.098776 
1000.000 7550.000       3.083281 
1000.000 7600.000       3.067412 
1000.000 7650.000       3.051164 
1000.000 7700.000       3.034537 
1000.000 7750.000       3.017529 
1000.000 7800.000       3.000138 
1000.000 7850.000       2.982365 
1000.000 7900.000       2.964209 
1000.000 7950.000       2.945671 
1000.000 8000.000       2.926754 
1000.000 8050.000       2.907458 
1000.000 8100.000       2.887789 
1000.000 8150.000       2.867750 
1000.000 8200.000       2.847347 
1000.000 8250.000       2.826588 
1000.000 8300.000       2.805480 
1000.000 8350.000       2.784033 
1000.000 8400.000       2.762259 
1000.000 8450.000       2.740170 
1000.000 8500.000       2.717781 
1000.000 8550.000       2.695108 
1000.000 8600.000       2.672169 
1000.000 8650.000       2.648982 
1000.000 8700.000       2.625569 
1000.000 8750.000       2.601951 
1000.000 8800.000       2.578152 
1000.000 8850.000       2.554196 
1000.000 8900.000       2.530108 
1000.000 8950.000       2.505916 
1000.000 9000.000       2.481645 
1000.000 9050.000       2.457321 
1000.000 9100.000       2.432973 
1000.000 9150.000       2.408626 
1000.000 9200.000       2.384307 
1000.000 9250.000       2.360041 
1000.000 9300.000       2.335852 
1000.000 9350.000       2.311763 
1000.000 9400.000       2.287797 
1000.000 9450.000       2.263974 
1000.000 9500.000       2.240314 
1000.000 9550.000       2.216832 
1000.000 9600.000       2.193547 
1000.000 9650.000       2.170471 
1000.000 9700.000       2.147618 
1000.000 9750.000       2.124998 
1000.000 9800.000       2.102621 
1000.000 9850.000       2.080496 
1000.000 9900.000       2.058628 
1000.000 9950.000       2.037024 
1000.000 10000.000       2.015688 
1050.000   0.000       2.033979 
1050.000  50.000       2.055875 
1050.000 100.000       2.078061 
1050.000 150.000       2.100532 
1050.000 200.000       2.123283 
1050.000 250.000       2.146309 
1050.000 300.000       2.169600 
1050.000 350.000       2.193148 
1050.000 400.000       2.216940 
1050.000 450.000       2.240965 
1050.000 500.000       2.265206 
1050.000 550.000       2.289647 
1050.000 600.000       2.314270 
1050.000 650.000       2.339054 
1050.000 700.000       2.363976 
1050.000 750.000       2.389014 
1050.000 800.000       2.414141 
1050.000 850.000       2.439331 
1050.000 900.000       2.464556 
1050.000 950.000       2.489788 
1050.000 1000.000       2.514997 
1050.000 1050.000       2.540154 
1050.000 1100.000       2.565229 
1050.000 1150.000       2.590193 
1050.000 1200.000       2.615018 
1050.000 1250.000       2.639675 
1050.000 1300.000       2.664137 
1050.000 1350.000       2.688380 
1050.000 1400.000       2.712380 
1050.000 1450.000       2.736114 
1050.000 1500.000       2.759561 
1050.000 1550.000       2.782703 
1050.000 1600.000       2.805523 
1050.000 1650.000       2.828005 
1050.000 1700.000       2.850137 
1050.000 1750.000       2.871907 
1050.000 1800.000       2.893305 
1050.000 1850.000       2.914323 
1050.000 1900.000       2.934954 
1050.000 1950.000       2.955192 
1050.000 2000.000       2.975034 
1050.000 2050.000       2.994476 
1050.000 2100.000       3.013516 
1050.000 2150.000       3.032154 
1050.000 2200.000       3.050390 
1050.000 2250.000       3.068223 
1050.000 2300.000       3.085656 
1050.000 2350.000       3.102689 
1050.000 2400.000       3.119326 
1050.000 2450.000       3.135568 
1050.000 2500.000       3.151418 
1050.000 2550.000       3.166881 
1050.000 2600.000       3.181958 
1050.000 2650.000       3.196655 
1050.000 2700.000       3.210974 
1050.000 2750.000       3.224920 
1050.000 2800.000       3.238496 
1050.000 2850.000       3.251706 
1050.000 2900.000       3.264554 
1050.000 2950.000       3.277045 
1050.000 3000.000       3.289181 
1050.000 3050.000       3.300967 
1050.000 3100.000       3.312407 
1050.000 3150.000       3.323505 
1050.000 3200.000       3.334263 
1050.000 3250.000       3.344686 
1050.000 3300.000       3.354777 
1050.000 3350.000       3.364540 
1050.000 3400.000       3.373977 
1050.000 3450.000       3.383092 
1050.000 3500.000       3.391888 
1050.000 3550.000       3.400368 
1050.000 3600.000       3.408535 
1050.000 3650.000       3.416392 
1050.000 3700.000       3.423941 
1050.000 3750.000       3.431184 
1050.000 3800.000       3.438125 
1050.000 3850.000       3.444765 
1050.000 3900.000       3.451107 
1050.000 3950.000       3.457152 
1050.000 4000.000       3.462903 
1050.000 4050.000       3.468363 
1050.000 4100.000       3.473531 
1050.000 4150.000       3.478411 
1050.000 4200.000       3.483003 
1050.000 4250.000       3.487310 
1050.000 4300.000       3.491333 
1050.000 4350.000       3.495072 
1050.000 4400.000       3.498530 
1050.000 4450.000       3.501707 
1050.000 4500.000       3.504604 
1050.000 4550.000       3.507223 
1050.000 4600.000       3.509564 
1050.000 4650.000       3.511628 
1050.000 4700.000       3.513415 
1050.000 4750.000       3.514926 
1050.000 4800.000       3.516162 
1050.000 4850.000       3.517123 
1050.000 4900.000       3.517809 
1050.000 4950.000       3.518220 
1050.000 5000.000       3.518357 
1050.000 5050.000       3.518220 
1050.000 5100.000       3.517809 
1050.000 5150.000       3.517123 
1050.000 5200.000       3.516162 
1050.000 5250.000       3.514926 
1050.000 5300.000       3.513415 
1050.000 5350.000       3.511628 
1050.000 5400.000       3.509564 
1050.000 5450.000       3.507223 
1050.000 5500.000       3.504604 
1050.000 5550.000       3.501707 
1050.000 5600.000       3.498530 
1050.000 5650.000       3.495072 
1050.000 5700.000       3.491333 
1050.000 5750.000       3.487310 
1050.000 5800.000       3.483003 
1050.000 5850.000       3.478411 
1050.000 5900.000       3.473531 
1050.000 5950.000       3.468363 
1050.000 6000.000       3.462903 
1050.000 6050.000       3.457152 
1050.000 6100.000       3.451107 
1050.000 6150.000       3.444765 
1050.000 6200.000       3.438125 
1050.000 6250.000       3.431184 
1050.000 6300.000       3.423941 
1050.000 6350.000       3.416392 
1050.000 6400.000       3.408535 
1050.000 6450.000       3.400368 
1050.000 6500.000       3.391888 
1050.000 6550.000       3.383092 
1050.000 6600.000       3.373977 
1050.000 6650.000       3.364540 
1050.000 6700.000       3.354777 
1050.000 6750.000       3.344686 
1050.000 6800.000       3.334263 
1050.000 6850.000       3.323505 
1050.000 6900.000       3.312407 
1050.000 6950.000       3.300967 
1050.000 7000.000       3.289181 
1050.000 7050.000       3.277045 
1050.000 7100.000       3.264554 
1050.000 7150.000       3.251706 
1050.000 7200.000       3.238496 
1050.000 7250.000       3.224920 
1050.000 7300.000       3.210974 
1050.000 7350.000       3.196655 
1050.000 7400.000       3.181958 
1050.000 7450.000       3.166881 
1050.000 7500.000       3.151418 
1050.000 7550.000       3.135568 
1050.000 7600.000       3.119326 
1050.000 7650.000       3.102689 
1050.000 7700.000       3.085656 
1050.000 7750.000       3.068223 
1050.000 7800.000       3.050390 
1050.000 7850.000       3.032154 
1050.000 7900.000       3.013516 
1050.000 7950.000       2.994476 
1050.000 8000.000       2.975034 
1050.000 8050.000       2.955192 
1050.000 8100.000       2.934954 
1050.000 8150.000       2.914323 
1050.000 8200.000       2.893305 
1050.000 8250.000       2.871907 
1050.000 8300.000       2.850137 
1050.000 8350.000       2.828005 
1050.000 8400.000       2.805523 
1050.000 8450.000       2.782703 
1050.000 8500.000       2.759561 
1050.000 8550.000       2.736114 
1050.000 8600.000       2.712380 
1050.000 8650.000       2.688380 
1050.000 8700.000       2.664137 
1050.000 8750.000       2.639675 
1050.000 8800.000       2.615018 
1050.000 8850.000       2.590193 
1050.000 8900.000       2.565229 
1050.000 8950.000       2.540154 
1050.000 9000.000       2.514997 
1050.000 9050.000       2.489788 
1050.000 9100.000       2.464556 
1050.000 9150.000       2.439331 
1050.000 9200.000       2.414141 
1050.000 9250.000       2.389014 
1050.000 9300.000       2.363976 
1050.000 9350.000       2.339054 
1050.000 9400.000       2.314270 
1050.000 9450.000       2.289647 
1050.000 9500.000       2.265206 
1050.000 9550.000       2.240965 
1050.000 9600.000       2.216940 
1050.000 9650.000       2.193148 
1050.000 9700.000       2.169600 
1050.000 9750.000       2.146309 
1050.000 9800.000       2.123283 
1050.000 9850.000       2.100532 
1050.000 9900.000       2.078061 
1050.000 9950.000       2.055875 
1050.000 10000.000       2.033979 
1100.000   0.000       2.052413 
1100.000  50.000       2.074888 
1100.000 100.000       2.097676 
1100.000 150.000       2.120774 
1100.000 200.000       2.144177 
1100.000 250.000       2.167880 
1100.000 300.000       2.191873 
1100.000 350.000       2.216148 
1100.000 400.000       2.240693 
1100.000 450.000       2.265494 
1100.000 500.000       2.290536 
1100.000 550.000       2.315801 
1100.000 600.000       2.341270 
1100.000 650.000       2.366919 
1100.000 700.000       2.392726 
1100.000 750.000       2.418665 
1100.000 800.000       2.444707 
1100.000 850.000       2.470823 
1100.000 900.000       2.496984 
1100.000 950.000       2.523156 
1100.000 1000.000       2.549309 
1100.000 1050.000       2.575409 
1100.000 1100.000       2.601425 
1100.000 1150.000       2.627322 
1100.000 1200.000       2.653071 
1100.000 1250.000       2.678640 
1100.000 1300.000       2.704000 
1100.000 1350.000       2.729123 
1100.000 1400.000       2.753984 
1100.000 1450.000       2.778557 
1100.000 1500.000       2.802822 
1100.000 1550.000       2.826758 
1100.000 1600.000       2.850347 
1100.000 1650.000       2.873573 
1100.000 1700.000       2.896424 
1100.000 1750.000       2.918886 
1100.000 1800.000       2.940950 
1100.000 1850.000       2.962608 
1100.000 1900.000       2.983854 
1100.000 1950.000       3.004683 
1100.000 2000.000       3.025090 
1100.000 2050.000       3.045075 
1100.000 2100.000       3.064634 
1100.000 2150.000       3.083769 
1100.000 2200.000       3.102480 
1100.000 2250.000       3.120768 
1100.000 2300.000       3.138636 
1100.000 2350.000       3.156085 
1100.000 2400.000       3.173118 
1100.000 2450.000       3.189741 
1100.000 2500.000       3.205955 
1100.000 2550.000       3.221764 
1100.000 2600.000       3.237174 
1100.000 2650.000       3.252189 
1100.000 2700.000       3.266812 
1100.000 2750.000       3.281048 
1100.000 2800.000       3.294902 
1100.000 2850.000       3.308378 
1100.000 2900.000       3.321480 
1100.000 2950.000       3.334214 
1100.000 3000.000       3.346583 
1100.000 3050.000       3.358592 
1100.000 3100.000       3.370245 
1100.000 3150.000       3.381546 
1100.000 3200.000       3.392499 
1100.000 3250.000       3.403109 
1100.000 3300.000       3.413378 
1100.000 3350.000       3.423311 
1100.000 3400.000       3.432911 
1100.000 3450.000       3.442181 
1100.000 3500.000       3.451126 
1100.000 3550.000       3.459747 
1100.000 3600.000       3.468049 
1100.000 3650.000       3.476035 
1100.000 3700.000       3.483706 
1100.000 3750.000       3.491066 
1100.000 3800.000       3.498117 
1100.000 3850.000       3.504862 
1100.000 3900.000       3.511304 
1100.000 3950.000       3.517444 
1100.000 4000.000       3.523284 
1100.000 4050.000       3.528828 
1100.000 4100.000       3.534075 
1100.000 4150.000       3.539029 
1100.000 4200.000       3.543692 
1100.000 4250.000       3.548063 
1100.000 4300.000       3.552146 
1100.000 4350.000       3.555942 
1100.000 4400.000       3.559451 
1100.000 4450.000       3.562675 
1100.000 4500.000       3.565615 
1100.000 4550.000       3.568273 
1100.000 4600.000       3.570648 
1100.000 4650.000       3.572742 
1100.000 4700.000       3.574555 
1100.000 4750.000       3.576088 
1100.000 4800.000       3.577342 
1100.000 4850.000       3.578317 
1100.000 4900.000       3.579013 
1100.000 4950.000       3.579431 
1100.000 5000.000       3.579570 
1100.000 5050.000       3.579431 
1100.000 5100.000       3.579013 
1100.000 5150.000       3.578317 
1100.000 5200.000       3.577342 
1100.000 5250.000       3.576088 
1100.000 5300.000       3.574555 
1100.000 5350.000       3.572742 
1100.000 5400.000       3.570648 
1100.000 5450.000       3.568273 
1100.000 5500.000       3.565615 
1100.000 5550.000       3.562675 
1100.000 5600.000       3.559451 
1100.000 5650.000       3.555942 
1100.000 5700.000       3.552146 
1100.000 5750.000       3.548063 
1100.000 5800.000       3.543692 
1100.000 5850.000       3.539029 
1100.000 5900.000       3.534075 
1100.000 5950.000       3.528828 
1100.000 6000.000       3.523284 
1100.000 6050.000       3.517444 
1100.000 6100.000       3.511304 
1100.000 6150.000       3.504862 
1100.000 6200.000       3.498117 
1100.000 6250.000       3.491066 
1100.000 6300.000       3.483706 
1100.000 6350.000       3.476035 
1100.000 6400.000       3.468049 
1100.000 6450.000       3.459747 
1100.000 6500.000       3.451126 
1100.000 6550.000       3.442181 
1100.000 6600.000       3.432911 
1100.000 6650.000       3.423311 
1100.000 6700.000       3.413378 
1100.000 6750.000       3.403109 
1100.000 6800.000       3.392499 
1100.000 6850.000       3.381546 
1100.000 6900.000       3.370245 
1100.000 6950.000       3.358592 
1100.000 7000.000       3.346583 
1100.000 7050.000       3.334214 
1100.000 7100.000       3.321480 
1100.000 7150.000       3.308378 
1100.000 7200.000       3.294902 
1100.000 7250.000       3.281048 
1100.000 7300.000       3.266812 
1100.000 7350.000       3.252189 
1100.000 7400.000       3.237174 
1100.000 7450.000       3.221764 
1100.000 7500.000       3.205955 
1100.000 7550.000       3.189741 
1100.000 7600.000       3.173118 
1100.000 7650.000       3.156085 
1100.000 7700.000       3.138636 
1100.000 7750.000       3.120768 
1100.000 7800.000       3.102480 
1100.000 7850.000       3.083769 
1100.000 7900.000       3.064634 
1100.000 7950.000       3.045075 
1100.000 8000.000       3.025090 
1100.000 8050.000       3.004683 
1100.000 8100.000       2.983854 
1100.000 8150.000       2.962608 
1100.000 8200.000       2.940950 
1100.000 8250.000       2.918886 
1100.000 8300.000       2.896424 
1100.000 8350.000       2.873573 
1100.000 8400.000       2.850347 
1100.000 8450.000       2.826758 
1100.000 8500.000       2.802822 
1100.000 8550.000       2.778557 
1100.000 8600.000       2.753984 
1100.000 8650.000       2.729123 
1100.000 8700.000       2.704000 
1100.000 8750.000       2.678640 
1100.000 8800.000       2.653071 
1100.000 8850.000       2.627322 
1100.000 8900.000       2.601425 
1100.000 8950.000       2.575409 
1100.000 9000.000       2.549309 
1100.000 9050.000       2.523156 
1100.000 9100.000       2.496984 
1100.000 9150.000       2.470823 
1100.000 9200.000       2.444707 
1100.000 9250.000       2.418665 
1100.000 9300.000       2.392726 
1100.000 9350.000       2.366919 
1100.000 9400.000       2.341270 
1100.000 9450.000       2.315801 
1100.000 9500.000       2.290536 
1100.000 9550.000       2.265494 
1100.000 9600.000       2.240693 
1100.000 9650.000       2.216148 
1100.000 9700.000       2.191873 
1100.000 9750.000       2.167880 
1100.000 9800.000       2.144177 
1100.000 9850.000       2.120774 
1100.000 9900.000       2.097676 
1100.000 9950.000       2.074888 
1100.000 10000.000       2.052413 
1150.000   0.000       2.070982 
1150.000  50.000       2.094056 
1150.000 100.000       2.117469 
1150.000 150.000       2.141218 
1150.000 200.000       2.165300 
1150.000 250.000       2.189708 
1150.000 300.000       2.214436 
1150.000 350.000       2.239472 
1150.000 400.000       2.264807 
1150.000 450.000       2.290426 
1150.000 500.000       2.316313 
1150.000 550.000       2.342449 
1150.000 600.000       2.368812 
1150.000 650.000       2.395380 
1150.000 700.000       2.422127 
1150.000 750.000       2.449024 
1150.000 800.000       2.476040 
1150.000 850.000       2.503144 
1150.000 900.000       2.530303 
1150.000 950.000       2.557480 
1150.000 1000.000       2.584641 
1150.000 1050.000       2.611749 
1150.000 1100.000       2.638768 
1150.000 1150.000       2.665662 
1150.000 1200.000       2.692396 
1150.000 1250.000       2.718936 
1150.000 1300.000       2.745251 
1150.000 1350.000       2.771309 
1150.000 1400.000       2.797083 
1150.000 1450.000       2.822547 
1150.000 1500.000       2.847676 
1150.000 1550.000       2.872449 
1150.000 1600.000       2.896849 
1150.000 1650.000       2.920857 
1150.000 1700.000       2.944460 
1150.000 1750.000       2.967647 
1150.000 1800.000       2.990407 
1150.000 1850.000       3.012732 
1150.000 1900.000       3.034618 
1150.000 1950.000       3.056059 
1150.000 2000.000       3.077052 
1150.000 2050.000       3.097597 
1150.000 2100.000       3.117692 
1150.000 2150.000       3.137338 
1150.000 2200.000       3.156538 
1150.000 2250.000       3.175292 
1150.000 2300.000       3.193605 
1150.000 2350.000       3.211479 
1150.000 2400.000       3.228919 
1150.000 2450.000       3.245929 
1150.000 2500.000       3.262513 
1150.000 2550.000       3.278676 
1150.000 2600.000       3.294423 
1150.000 2650.000       3.309760 
1150.000 2700.000       3.324691 
1150.000 2750.000       3.339222 
1150.000 2800.000       3.353357 
1150.000 2850.000       3.367101 
1150.000 2900.000       3.380461 
1150.000 2950.000       3.393440 
1150.000 3000.000       3.406044 
1150.000 3050.000       3.418278 
1150.000 3100.000       3.430145 
1150.000 3150.000       3.441652 
1150.000 3200.000       3.452801 
1150.000 3250.000       3.463598 
1150.000 3300.000       3.474046 
1150.000 3350.000       3.484150 
1150.000 3400.000       3.493914 
1150.000 3450.000       3.503340 
1150.000 3500.000       3.512434 
1150.000 3550.000       3.521198 
1150.000 3600.000       3.529635 
1150.000 3650.000       3.537750 
1150.000 3700.000       3.545544 
1150.000 3750.000       3.553021 
1150.000 3800.000       3.560183 
1150.000 3850.000       3.567034 
1150.000 3900.000       3.573575 
1150.000 3950.000       3.579810 
1150.000 4000.000       3.585740 
1150.000 4050.000       3.591367 
1150.000 4100.000       3.596694 
1150.000 4150.000       3.601723 
1150.000 4200.000       3.606455 
1150.000 4250.000       3.610892 
1150.000 4300.000       3.615035 
1150.000 4350.000       3.618886 
1150.000 4400.000       3.622447 
1150.000 4450.000       3.625719 
1150.000 4500.000       3.628702 
1150.000 4550.000       3.631398 
1150.000 4600.000       3.633807 
1150.000 4650.000       3.635931 
1150.000 4700.000       3.637771 
1150.000 4750.000       3.639326 
1150.000 4800.000       3.640598 
1150.000 4850.000       3.641587 
1150.000 4900.000       3.642293 
1150.000 4950.000       3.642717 
1150.000 5000.000       3.642858 
1150.000 5050.000       3.642717 
1150.000 5100.000       3.642293 
1150.000 5150.000       3.641587 
1150.000 5200.000       3.640598 
1150.000 5250.000       3.639326 
1150.000 5300.000       3.637771 
1150.000 5350.000       3.635931 
1150.000 5400.000       3.633807 
1150.000 5450.000       3.631398 
1150.000 5500.000       3.628702 
1150.000 5550.000       3.625719 
1150.000 5600.000       3.622447 
1150.000 5650.000       3.618886 
1150.000 5700.000       3.615035 
1150.000 5750.000       3.610892 
1150.000 5800.000       3.606455 
1150.000 5850.000       3.601723 
1150.000 5900.000       3.596694 
1150.000 5950.000       3.591367 
1150.000 6000.000       3.585740 
1150.000 6050.000       3.579810 
1150.000 6100.000       3.573575 
1150.000 6150.000       3.567034 
1150.000 6200.000       3.560183 
1150.000 6250.000       3.553021 
1150.000 6300.000       3.545544 
1150.000 6350.000       3.537750 
1150.000 6400.000       3.529635 
1150.000 6450.000       3.521198 
1150.000 6500.000       3.512434 
1150.000 6550.000       3.503340 
1150.000 6600.000       3.493914 
1150.000 6650.000       3.484150 
1150.000 6700.000       3.474046 
1150.000 6750.000       3.463598 
1150.000 6800.000       3.452801 
1150.000 6850.000       3.441652 
1150.000 6900.000       3.430145 
1150.000 6950.000       3.418278 
1150.000 7000.000       3.406044 
1150.000 7050.000       3.393440 
1150.000 7100.000       3.380461 
1150.000 7150.000       3.367101 
1150.000 7200.000       3.353357 
1150.000 7250.000       3.339222 
1150.000 7300.000       3.324691 
1150.000 7350.000       3.309760 
1150.000 7400.000       3.294423 
1150.000 7450.000       3.278676 
1150.000 7500.000       3.262513 
1150.000 7550.000       3.245929 
1150.000 7600.000       3.228919 
1150.000 7650.000       3.211479 
1150.000 7700.000       3.193605 
1150.000 7750.000       3.175292 
1150.000 7800.000       3.156538 
1150.000 7850.000       3.137338 
1150.000 7900.000       3.117692 
1150.000 7950.000       3.097597 
1150.000 8000.000       3.077052 
1150.000 8050.000       3.056059 
1150.000 8100.000       3.034618 
1150.000 8150.000       3.012732 
1150.000 8200.000       2.990407 
1150.000 8250.000       2.967647 
1150.000 8300.000       2.944460 
1150.000 8350.000       2.920857 
1150.000 8400.000       2.896849 
1150.000 8450.000       2.872449 
1150.000 8500.000       2.847676 
1150.000 8550.000       2.822547 
1150.000 8600.000       2.797083 
1150.000 8650.000       2.771309 
1150.000 8700.000       2.745251 
1150.000 8750.000       2.718936 
1150.000 8800.000       2.692396 
1150.000 8850.000       2.665662 
1150.000 8900.000       2.638768 
1150.000 8950.000       2.611749 
1150.000 9000.000       2.584641 
1150.000 9050.000       2.557480 
1150.000 9100.000       2.530303 
1150.000 9150.000       2.503144 
1150.000 9200.000       2.476040 
1150.000 9250.000       2.449024 
1150.000 9300.000       2.422127 
1150.000 9350.000       2.395380 
1150.000 9400.000       2.368812 
1150.000 9450.000       2.342449 
1150.000 9500.000       2.316313 
1150.000 9550.000       2.290426 
1150.000 9600.000       2.264807 
1150.000 9650.000       2.239472 
1150.000 9700.000       2.214436 
1150.000 9750.000       2.189708 
1150.000 9800.000       2.165300 
1150.000 9850.000       2.141218 
1150.000 9900.000       2.117469 
1150.000 9950.000       2.094056 
1150.000 10000.000       2.070982 
1200.000   0.000       2.089678 
1200.000  50.000       2.113371 
1200.000 100.000       2.137431 
1200.000 150.000       2.161857 
1200.000 200.000       2.186645 
1200.000 250.000       2.211790 
1200.000 300.000       2.237285 
1200.000 350.000       2.263121 
1200.000 400.000       2.289286 
1200.000 450.000       2.315767 
1200.000 500.000       2.342545 
1200.000 550.000       2.369602 
1200.000 600.000       2.396915 
1200.000 650.000       2.424459 
1200.000 700.000       2.452206 
1200.000 750.000       2.480124 
1200.000 800.000       2.508181 
1200.000 850.000       2.536341 
1200.000 900.000       2.564567 
1200.000 950.000       2.592819 
1200.000 1000.000       2.621059 
1200.000 1050.000       2.649246 
1200.000 1100.000       2.677339 
1200.000 1150.000       2.705299 
1200.000 1200.000       2.733086 
1200.000 1250.000       2.760664 
1200.000 1300.000       2.787997 
1200.000 1350.000       2.815051 
1200.000 1400.000       2.841796 
1200.000 1450.000       2.868203 
1200.000 1500.000       2.894247 
1200.000 1550.000       2.919906 
1200.000 1600.000       2.945158 
1200.000 1650.000       2.969989 
1200.000 1700.000       2.994382 
1200.000 1750.000       3.018327 
1200.000 1800.000       3.041814 
1200.000 1850.000       3.064835 
1200.000 1900.000       3.087385 
1200.000 1950.000       3.109461 
1200.000 2000.000       3.131061 
1200.000 2050.000       3.152184 
1200.000 2100.000       3.172831 
1200.000 2150.000       3.193004 
1200.000 2200.000       3.212705 
1200.000 2250.000       3.231937 
1200.000 2300.000       3.250706 
1200.000 2350.000       3.269015 
1200.000 2400.000       3.286869 
1200.000 2450.000       3.304273 
1200.000 2500.000       3.321234 
1200.000 2550.000       3.337756 
1200.000 2600.000       3.353846 
1200.000 2650.000       3.369510 
1200.000 2700.000       3.384753 
1200.000 2750.000       3.399581 
1200.000 2800.000       3.414001 
1200.000 2850.000       3.428017 
1200.000 2900.000       3.441636 
1200.000 2950.000       3.454863 
1200.000 3000.000       3.467704 
1200.000 3050.000       3.480163 
1200.000 3100.000       3.492247 
1200.000 3150.000       3.503960 
1200.000 3200.000       3.515306 
1200.000 3250.000       3.526292 
1200.000 3300.000       3.536920 
1200.000 3350.000       3.547196 
1200.000 3400.000       3.557124 
1200.000 3450.000       3.566707 
1200.000 3500.000       3.575950 
1200.000 3550.000       3.584857 
1200.000 3600.000       3.593430 
1200.000 3650.000       3.601674 
1200.000 3700.000       3.609591 
1200.000 3750.000       3.617185 
1200.000 3800.000       3.624459 
1200.000 3850.000       3.631416 
1200.000 3900.000       3.638057 
1200.000 3950.000       3.644386 
1200.000 4000.000       3.650406 
1200.000 4050.000       3.656118 
1200.000 4100.000       3.661524 
1200.000 4150.000       3.666627 
1200.000 4200.000       3.671429 
1200.000 4250.000       3.675931 
1200.000 4300.000       3.680135 
1200.000 4350.000       3.684042 
1200.000 4400.000       3.687654 
1200.000 4450.000       3.690973 
1200.000 4500.000       3.693999 
1200.000 4550.000       3.696733 
1200.000 4600.000       3.699178 
1200.000 4650.000       3.701332 
1200.000 4700.000       3.703198 
1200.000 4750.000       3.704775 
1200.000 4800.000       3.706065 
1200.000 4850.000       3.707068 
1200.000 4900.000       3.707784 
1200.000 4950.000       3.708214 
1200.000 5000.000       3.708357 
1200.000 5050.000       3.708214 
1200.000 5100.000       3.707784 
1200.000 5150.000       3.707068 
1200.000 5200.000       3.706065 
1200.000 5250.000       3.704775 
1200.000 5300.000       3.703198 
1200.000 5350.000       3.701332 
1200.000 5400.000       3.699178 
1200.000 5450.000       3.696733 
1200.000 5500.000       3.693999 
1200.000 5550.000       3.690973 
1200.000 5600.000       3.687654 
1200.000 5650.000       3.684042 
1200.000 5700.000       3.680135 
1200.000 5750.000       3.675931 
1200.000 5800.000       3.671429 
1200.000 5850.000       3.666627 
1200.000 5900.000       3.661524 
1200.000 5950.000       3.656118 
1200.000 6000.000       3.650406 
1200.000 6050.000       3.644386 
1200.000 6100.000       3.638057 
1200.000 6150.000       3.631416 
1200.000 6200.000       3.624459 
1200.000 6250.000       3.617185 
1200.000 6300.000       3.609591 
1200.000 6350.000       3.601674 
1200.000 6400.000       3.593430 
