X Y mag
4550.000 5800.000      43.264274 
4550.000 5850.000      43.255355 
4550.000 5900.000      43.245771 
4550.000 5950.000      43.235496 
4550.000 6000.000      43.224503 
4550.000 6050.000      43.212764 
4550.000 6100.000      43.200245 
4550.000 6150.000      43.186913 
4550.000 6200.000      43.172729 
4550.000 6250.000      43.157652 
4550.000 6300.000      43.141637 
4550.000 6350.000      43.124635 
4550.000 6400.000      43.106593 
4550.000 6450.000      43.087452 
4550.000 6500.000      43.067150 
4550.000 6550.000      43.045616 
4550.000 6600.000      43.022774 
4550.000 6650.000      42.998542 
4550.000 6700.000      42.972827 
4550.000 6750.000      42.945528 
4550.000 6800.000      42.916536 
4550.000 6850.000      42.885727 
4550.000 6900.000      42.852967 
4550.000 6950.000      42.818104 
4550.000 7000.000      42.780973 
4550.000 7050.000      42.741387 
4550.000 7100.000      42.699140 
4550.000 7150.000      42.654000 
4550.000 7200.000      42.605706 
4550.000 7250.000      42.553967 
4550.000 7300.000      42.498451 
4550.000 7350.000      42.438786 
4550.000 7400.000      42.374547 
4550.000 7450.000      42.305251 
4550.000 7500.000      42.230345 
4550.000 7550.000      42.149196 
4550.000 7600.000      42.061077 
4550.000 7650.000      41.965145 
4550.000 7700.000      41.860426 
4550.000 7750.000      41.745786 
4550.000 7800.000      41.619899 
4550.000 7850.000      41.481214 
4550.000 7900.000      41.327904 
4550.000 7950.000      41.157811 
4550.000 8000.000      40.968377 
4550.000 8050.000      40.756561 
4550.000 8100.000      40.518733 
4550.000 8150.000      40.250548 
4550.000 8200.000      39.946796 
4550.000 8250.000      39.601220 
4550.000 8300.000      39.206303 
4550.000 8350.000      38.753029 
4550.000 8400.000      38.230622 
4550.000 8450.000      37.626301 
4550.000 8500.000      36.925079 
4550.000 8550.000      36.109719 
4550.000 8600.000      35.160985 
4550.000 8650.000      34.058418 
4550.000 8700.000      32.781941 
4550.000 8750.000      31.314643 
4550.000 8800.000      29.646926 
4550.000 8850.000      27.781779 
4550.000 8900.000      25.740054 
4550.000 8950.000      23.563594 
4550.000 9000.000      21.313669 
4550.000 9050.000      19.063438 
4550.000 9100.000      16.886111 
4550.000 9150.000      14.843090 
4550.000 9200.000      12.976389 
4550.000 9250.000      11.307019 
4550.000 9300.000       9.838091 
4550.000 9350.000       8.560087 
4550.000 9400.000       7.456135 
4550.000 9450.000       6.506172 
4550.000 9500.000       5.689732 
4550.000 9550.000       4.987566 
4550.000 9600.000       4.382419 
4550.000 9650.000       3.859286 
4550.000 9700.000       3.405367 
4550.000 9750.000       3.009872 
4550.000 9800.000       2.663771 
4550.000 9850.000       2.359536 
4550.000 9900.000       2.090899 
4550.000 9950.000       1.852643 
4550.000 10000.000       1.640415 
4600.000   0.000       1.699882 
4600.000  50.000       1.922489 
4600.000 100.000       2.173572 
4600.000 150.000       2.458174 
4600.000 200.000       2.782427 
4600.000 250.000       3.153813 
4600.000 300.000       3.581485 
4600.000 350.000       4.076650 
4600.000 400.000       4.653024 
4600.000 450.000       5.327337 
4600.000 500.000       6.119852 
4600.000 550.000       7.054789 
4600.000 600.000       8.160466 
4600.000 650.000       9.468807 
4600.000 700.000      11.013644 
4600.000 750.000      12.827065 
4600.000 800.000      14.932983 
4600.000 850.000      17.337702 
4600.000 900.000      20.018886 
4600.000 950.000      22.917042 
4600.000 1000.000      25.935747 
4600.000 1050.000      28.954946 
4600.000 1100.000      31.854479 
4600.000 1150.000      34.537664 
4600.000 1200.000      36.944696 
4600.000 1250.000      39.052967 
4600.000 1300.000      40.868598 
4600.000 1350.000      42.415401 
4600.000 1400.000      43.725426 
4600.000 1450.000      44.832511 
4600.000 1500.000      45.768603 
4600.000 1550.000      46.562052 
4600.000 1600.000      47.237110 
4600.000 1650.000      47.814070 
4600.000 1700.000      48.309687 
4600.000 1750.000      48.737700 
4600.000 1800.000      49.109334 
4600.000 1850.000      49.433754 
4600.000 1900.000      49.718455 
4600.000 1950.000      49.969578 
4600.000 2000.000      50.192173 
4600.000 2050.000      50.390408 
4600.000 2100.000      50.567737 
4600.000 2150.000      50.727037 
4600.000 2200.000      50.870711 
4600.000 2250.000      51.000780 
4600.000 2300.000      51.118948 
4600.000 2350.000      51.226661 
4600.000 2400.000      51.325148 
4600.000 2450.000      51.415460 
4600.000 2500.000      51.498501 
4600.000 2550.000      51.575049 
4600.000 2600.000      51.645778 
4600.000 2650.000      51.711273 
4600.000 2700.000      51.772044 
4600.000 2750.000      51.828538 
4600.000 2800.000      51.881146 
4600.000 2850.000      51.930216 
4600.000 2900.000      51.976052 
4600.000 2950.000      52.018925 
4600.000 3000.000      52.059075 
4600.000 3050.000      52.096719 
4600.000 3100.000      52.132047 
4600.000 3150.000      52.165232 
4600.000 3200.000      52.196429 
4600.000 3250.000      52.225777 
4600.000 3300.000      52.253402 
4600.000 3350.000      52.279419 
4600.000 3400.000      52.303929 
4600.000 3450.000      52.327028 
4600.000 3500.000      52.348800 
4600.000 3550.000      52.369323 
4600.000 3600.000      52.388669 
4600.000 3650.000      52.406902 
4600.000 3700.000      52.424081 
4600.000 3750.000      52.440261 
4600.000 3800.000      52.455492 
4600.000 3850.000      52.469820 
4600.000 3900.000      52.483285 
4600.000 3950.000      52.495928 
4600.000 4000.000      52.507784 
4600.000 4050.000      52.518884 
4600.000 4100.000      52.529259 
4600.000 4150.000      52.538936 
4600.000 4200.000      52.547941 
4600.000 4250.000      52.556296 
4600.000 4300.000      52.564022 
4600.000 4350.000      52.571139 
4600.000 4400.000      52.577663 
4600.000 4450.000      52.583611 
4600.000 4500.000      52.588997 
4600.000 4550.000      52.593833 
4600.000 4600.000      52.598131 
4600.000 4650.000      52.601901 
4600.000 4700.000      52.605151 
4600.000 4750.000      52.607889 
4600.000 4800.000      52.610121 
4600.000 4850.000      52.611853 
4600.000 4900.000      52.613087 
4600.000 4950.000      52.613828 
4600.000 5000.000      52.614076 
4600.000 5050.000      52.613832 
4600.000 5100.000      52.613095 
4600.000 5150.000      52.611865 
4600.000 5200.000      52.610137 
4600.000 5250.000      52.607909 
4600.000 5300.000      52.605175 
4600.000 5350.000      52.601929 
4600.000 5400.000      52.598163 
4600.000 5450.000      52.593870 
4600.000 5500.000      52.589038 
4600.000 5550.000      52.583657 
4600.000 5600.000      52.577713 
4600.000 5650.000      52.571193 
4600.000 5700.000      52.564082 
4600.000 5750.000      52.556360 
4600.000 5800.000      52.548010 
4600.000 5850.000      52.539011 
4600.000 5900.000      52.529339 
4600.000 5950.000      52.518970 
4600.000 6000.000      52.507875 
4600.000 6050.000      52.496026 
4600.000 6100.000      52.483390 
4600.000 6150.000      52.469931 
4600.000 6200.000      52.455610 
4600.000 6250.000      52.440387 
4600.000 6300.000      52.424214 
4600.000 6350.000      52.407043 
4600.000 6400.000      52.388819 
4600.000 6450.000      52.369483 
4600.000 6500.000      52.348969 
4600.000 6550.000      52.327207 
4600.000 6600.000      52.304120 
4600.000 6650.000      52.279621 
4600.000 6700.000      52.253617 
4600.000 6750.000      52.226005 
4600.000 6800.000      52.196671 
4600.000 6850.000      52.165489 
4600.000 6900.000      52.132321 
4600.000 6950.000      52.097010 
4600.000 7000.000      52.059386 
4600.000 7050.000      52.019256 
4600.000 7100.000      51.976406 
4600.000 7150.000      51.930595 
4600.000 7200.000      51.881553 
4600.000 7250.000      51.828973 
4600.000 7300.000      51.772512 
4600.000 7350.000      51.711777 
4600.000 7400.000      51.646322 
4600.000 7450.000      51.575638 
4600.000 7500.000      51.499139 
4600.000 7550.000      51.416152 
4600.000 7600.000      51.325901 
4600.000 7650.000      51.227484 
4600.000 7700.000      51.119850 
4600.000 7750.000      51.001770 
4600.000 7800.000      50.871803 
4600.000 7850.000      50.728245 
4600.000 7900.000      50.569080 
4600.000 7950.000      50.391905 
4600.000 8000.000      50.193851 
4600.000 8050.000      49.971466 
4600.000 8100.000      49.720590 
4600.000 8150.000      49.436180 
4600.000 8200.000      49.112106 
4600.000 8250.000      48.740884 
4600.000 8300.000      48.313363 
4600.000 8350.000      47.818337 
4600.000 8400.000      47.242090 
4600.000 8450.000      46.567893 
4600.000 8500.000      45.775482 
4600.000 8550.000      44.840638 
4600.000 8600.000      43.735043 
4600.000 8650.000      42.426775 
4600.000 8700.000      40.882000 
4600.000 8750.000      39.068631 
4600.000 8800.000      36.962756 
4600.000 8850.000      34.558069 
4600.000 8900.000      31.876908 
4600.000 8950.000      28.978767 
4600.000 9000.000      25.960066 
4600.000 9050.000      22.940863 
4600.000 9100.000      20.041316 
4600.000 9150.000      17.358108 
4600.000 9200.000      14.951043 
4600.000 9250.000      12.842729 
4600.000 9300.000      11.027046 
4600.000 9350.000       9.480182 
4600.000 9400.000       8.170085 
4600.000 9450.000       7.062917 
4600.000 9500.000       6.126732 
4600.000 9550.000       5.333179 
4600.000 9600.000       4.658006 
4600.000 9650.000       4.080919 
4600.000 9700.000       3.585162 
4600.000 9750.000       3.156998 
4600.000 9800.000       2.785200 
4600.000 9850.000       2.460601 
4600.000 9900.000       2.175708 
4600.000 9950.000       1.924378 
4600.000 10000.000       1.701561 
4650.000   0.000       1.758242 
4650.000  50.000       1.991083 
4650.000 100.000       2.254879 
4650.000 150.000       2.555407 
4650.000 200.000       2.899781 
4650.000 250.000       3.296813 
4650.000 300.000       3.757469 
4650.000 350.000       4.295442 
4650.000 400.000       4.927877 
4650.000 450.000       5.676257 
4650.000 500.000       6.567427 
4650.000 550.000       7.634694 
4650.000 600.000       8.918799 
4650.000 650.000      10.468278 
4650.000 700.000      12.338367 
4650.000 750.000      14.586921 
4650.000 800.000      17.265297 
4650.000 850.000      20.402285 
4650.000 900.000      23.981792 
4650.000 950.000      27.921287 
4650.000 1000.000      32.065767 
4650.000 1050.000      36.211097 
4650.000 1100.000      40.152923 
4650.000 1150.000      43.735712 
4650.000 1200.000      46.876348 
4650.000 1250.000      49.558278 
4650.000 1300.000      51.810032 
4650.000 1350.000      53.682856 
4650.000 1400.000      55.234601 
4650.000 1450.000      56.520542 
4650.000 1500.000      57.589278 
4650.000 1550.000      58.481608 
4650.000 1600.000      59.230899 
4650.000 1650.000      59.864042 
4650.000 1700.000      60.402556 
4650.000 1750.000      60.863618 
4650.000 1800.000      61.260945 
4650.000 1850.000      61.605522 
4650.000 1900.000      61.906175 
4650.000 1950.000      62.170031 
4650.000 2000.000      62.402873 
4650.000 2050.000      62.609422 
4650.000 2100.000      62.793549 
4650.000 2150.000      62.958448 
4650.000 2200.000      63.106767 
4650.000 2250.000      63.240717 
4650.000 2300.000      63.362150 
4650.000 2350.000      63.472626 
4650.000 2400.000      63.573467 
4650.000 2450.000      63.665797 
4650.000 2500.000      63.750578 
4650.000 2550.000      63.828634 
4650.000 2600.000      63.900678 
4650.000 2650.000      63.967325 
4650.000 2700.000      64.029111 
4650.000 2750.000      64.086503 
4650.000 2800.000      64.139911 
4650.000 2850.000      64.189694 
4650.000 2900.000      64.236170 
4650.000 2950.000      64.279619 
4650.000 3000.000      64.320290 
4650.000 3050.000      64.358406 
4650.000 3100.000      64.394164 
4650.000 3150.000      64.427742 
4650.000 3200.000      64.459298 
4650.000 3250.000      64.488976 
4650.000 3300.000      64.516905 
4650.000 3350.000      64.543200 
4650.000 3400.000      64.567969 
4650.000 3450.000      64.591307 
4650.000 3500.000      64.613300 
4650.000 3550.000      64.634029 
4650.000 3600.000      64.653566 
4650.000 3650.000      64.671976 
4650.000 3700.000      64.689320 
4650.000 3750.000      64.705654 
4650.000 3800.000      64.721028 
4650.000 3850.000      64.735489 
4650.000 3900.000      64.749079 
4650.000 3950.000      64.761837 
4650.000 4000.000      64.773800 
4650.000 4050.000      64.785000 
4650.000 4100.000      64.795468 
4650.000 4150.000      64.805231 
4650.000 4200.000      64.814315 
4650.000 4250.000      64.822743 
4650.000 4300.000      64.830537 
4650.000 4350.000      64.837715 
4650.000 4400.000      64.844296 
4650.000 4450.000      64.850296 
4650.000 4500.000      64.855728 
4650.000 4550.000      64.860605 
4650.000 4600.000      64.864940 
4650.000 4650.000      64.868742 
4650.000 4700.000      64.872020 
4650.000 4750.000      64.874781 
4650.000 4800.000      64.877032 
4650.000 4850.000      64.878778 
4650.000 4900.000      64.880023 
4650.000 4950.000      64.880770 
4650.000 5000.000      64.881020 
4650.000 5050.000      64.880774 
4650.000 5100.000      64.880031 
4650.000 5150.000      64.878790 
4650.000 5200.000      64.877048 
4650.000 5250.000      64.874801 
4650.000 5300.000      64.872044 
4650.000 5350.000      64.868770 
4650.000 5400.000      64.864972 
4650.000 5450.000      64.860642 
4650.000 5500.000      64.855769 
4650.000 5550.000      64.850341 
4650.000 5600.000      64.844347 
4650.000 5650.000      64.837770 
4650.000 5700.000      64.830597 
4650.000 5750.000      64.822808 
4650.000 5800.000      64.814385 
4650.000 5850.000      64.805306 
4650.000 5900.000      64.795549 
4650.000 5950.000      64.785087 
4650.000 6000.000      64.773892 
4650.000 6050.000      64.761936 
4650.000 6100.000      64.749184 
4650.000 6150.000      64.735601 
4650.000 6200.000      64.721147 
4650.000 6250.000      64.705781 
4650.000 6300.000      64.689455 
4650.000 6350.000      64.672119 
4650.000 6400.000      64.653717 
4650.000 6450.000      64.634190 
4650.000 6500.000      64.613471 
4650.000 6550.000      64.591488 
4650.000 6600.000      64.568162 
4650.000 6650.000      64.543405 
4650.000 6700.000      64.517121 
4650.000 6750.000      64.489206 
4650.000 6800.000      64.459543 
4650.000 6850.000      64.428002 
4650.000 6900.000      64.394441 
4650.000 6950.000      64.358701 
4650.000 7000.000      64.320605 
4650.000 7050.000      64.279955 
4650.000 7100.000      64.236529 
4650.000 7150.000      64.190078 
4650.000 7200.000      64.140323 
4650.000 7250.000      64.086945 
4650.000 7300.000      64.029587 
4650.000 7350.000      63.967838 
4650.000 7400.000      63.901231 
4650.000 7450.000      63.829233 
4650.000 7500.000      63.751228 
4650.000 7550.000      63.666504 
4650.000 7600.000      63.574238 
4650.000 7650.000      63.473469 
4650.000 7700.000      63.363075 
4650.000 7750.000      63.241736 
4650.000 7800.000      63.107893 
4650.000 7850.000      62.959697 
4650.000 7900.000      62.794941 
4650.000 7950.000      62.610980 
4650.000 8000.000      62.404624 
4650.000 8050.000      62.172009 
4650.000 8100.000      61.908423 
4650.000 8150.000      61.608091 
4650.000 8200.000      61.263898 
4650.000 8250.000      60.867033 
4650.000 8300.000      60.406531 
4650.000 8350.000      59.868700 
4650.000 8400.000      59.236393 
4650.000 8450.000      58.488131 
4650.000 8500.000      57.597067 
4650.000 8550.000      56.529894 
4650.000 8600.000      55.245873 
4650.000 8650.000      53.696467 
4650.000 8700.000      51.826442 
4650.000 8750.000      49.577940 
4650.000 8800.000      46.899608 
4650.000 8850.000      43.762653 
4650.000 8900.000      40.183170 
4650.000 8950.000      36.243690 
4650.000 9000.000      32.099214 
4650.000 9050.000      27.953879 
4650.000 9100.000      24.012040 
4650.000 9150.000      20.429227 
4650.000 9200.000      17.288558 
4650.000 9250.000      14.606584 
4650.000 9300.000      12.354778 
4650.000 9350.000      10.481890 
4650.000 9400.000       8.930072 
4650.000 9450.000       7.644047 
4650.000 9500.000       6.575217 
4650.000 9550.000       5.682780 
4650.000 9600.000       4.933372 
4650.000 9650.000       4.300101 
4650.000 9700.000       3.761446 
4650.000 9750.000       3.300230 
4650.000 9800.000       2.902735 
4650.000 9850.000       2.557977 
4650.000 9900.000       2.257129 
4650.000 9950.000       1.993063 
4650.000 10000.000       1.759995 
4700.000   0.000       1.813024 
4700.000  50.000       2.055523 
4700.000 100.000       2.331385 
4700.000 150.000       2.647127 
4700.000 200.000       3.010877 
4700.000 250.000       3.432839 
4700.000 300.000       3.925912 
4700.000 350.000       4.506501 
4700.000 400.000       5.195595 
4700.000 450.000       6.020156 
4700.000 500.000       7.014894 
4700.000 550.000       8.224436 
4700.000 600.000       9.705753 
4700.000 650.000      11.530393 
4700.000 700.000      13.785366 
4700.000 750.000      16.570234 
4700.000 800.000      19.986049 
4700.000 850.000      24.110204 
4700.000 900.000      28.953573 
4700.000 950.000      34.409067 
4700.000 1000.000      40.224391 
4700.000 1050.000      46.041227 
4700.000 1100.000      51.500775 
4700.000 1150.000      56.349630 
4700.000 1200.000      60.479586 
4700.000 1250.000      63.900772 
4700.000 1300.000      66.690243 
4700.000 1350.000      68.948984 
4700.000 1400.000      70.776627 
4700.000 1450.000      72.260300 
4700.000 1500.000      73.471676 
4700.000 1550.000      74.467834 
4700.000 1600.000      75.293488 
4700.000 1650.000      75.983419 
4700.000 1700.000      76.564642 
4700.000 1750.000      77.058188 
4700.000 1800.000      77.480494 
4700.000 1850.000      77.844482 
4700.000 1900.000      78.160376 
4700.000 1950.000      78.436316 
4700.000 2000.000      78.678830 
4700.000 2050.000      78.893189 
4700.000 2100.000      79.083678 
4700.000 2150.000      79.253801 
4700.000 2200.000      79.406446 
4700.000 2250.000      79.544004 
4700.000 2300.000      79.668468 
4700.000 2350.000      79.781509 
4700.000 2400.000      79.884536 
4700.000 2450.000      79.978740 
4700.000 2500.000      80.065137 
4700.000 2550.000      80.144597 
4700.000 2600.000      80.217866 
4700.000 2650.000      80.285589 
4700.000 2700.000      80.348325 
4700.000 2750.000      80.406559 
4700.000 2800.000      80.460718 
4700.000 2850.000      80.511173 
4700.000 2900.000      80.558253 
4700.000 2950.000      80.602247 
4700.000 3000.000      80.643413 
4700.000 3050.000      80.681978 
4700.000 3100.000      80.718146 
4700.000 3150.000      80.752098 
4700.000 3200.000      80.783998 
4700.000 3250.000      80.813992 
4700.000 3300.000      80.842212 
4700.000 3350.000      80.868777 
4700.000 3400.000      80.893795 
4700.000 3450.000      80.917364 
4700.000 3500.000      80.939571 
4700.000 3550.000      80.960499 
4700.000 3600.000      80.980221 
4700.000 3650.000      80.998803 
4700.000 3700.000      81.016308 
4700.000 3750.000      81.032792 
4700.000 3800.000      81.048305 
4700.000 3850.000      81.062896 
4700.000 3900.000      81.076607 
4700.000 3950.000      81.089478 
4700.000 4000.000      81.101546 
4700.000 4050.000      81.112844 
4700.000 4100.000      81.123402 
4700.000 4150.000      81.133250 
4700.000 4200.000      81.142412 
4700.000 4250.000      81.150912 
4700.000 4300.000      81.158772 
4700.000 4350.000      81.166011 
4700.000 4400.000      81.172647 
4700.000 4450.000      81.178696 
4700.000 4500.000      81.184174 
4700.000 4550.000      81.189092 
4700.000 4600.000      81.193463 
4700.000 4650.000      81.197296 
4700.000 4700.000      81.200601 
4700.000 4750.000      81.203385 
4700.000 4800.000      81.205655 
4700.000 4850.000      81.207415 
4700.000 4900.000      81.208671 
4700.000 4950.000      81.209423 
4700.000 5000.000      81.209675 
4700.000 5050.000      81.209427 
4700.000 5100.000      81.208679 
4700.000 5150.000      81.207427 
4700.000 5200.000      81.205671 
4700.000 5250.000      81.203405 
4700.000 5300.000      81.200625 
4700.000 5350.000      81.197325 
4700.000 5400.000      81.193496 
4700.000 5450.000      81.189129 
4700.000 5500.000      81.184215 
4700.000 5550.000      81.178742 
4700.000 5600.000      81.172698 
4700.000 5650.000      81.166066 
4700.000 5700.000      81.158832 
4700.000 5750.000      81.150977 
4700.000 5800.000      81.142482 
4700.000 5850.000      81.133326 
4700.000 5900.000      81.123484 
4700.000 5950.000      81.112931 
4700.000 6000.000      81.101639 
4700.000 6050.000      81.089578 
4700.000 6100.000      81.076713 
4700.000 6150.000      81.063009 
4700.000 6200.000      81.048426 
4700.000 6250.000      81.032920 
4700.000 6300.000      81.016444 
4700.000 6350.000      80.998948 
4700.000 6400.000      80.980374 
4700.000 6450.000      80.960662 
4700.000 6500.000      80.939744 
4700.000 6550.000      80.917546 
4700.000 6600.000      80.893989 
4700.000 6650.000      80.868983 
4700.000 6700.000      80.842431 
4700.000 6750.000      80.814225 
4700.000 6800.000      80.784246 
4700.000 6850.000      80.752361 
4700.000 6900.000      80.718426 
4700.000 6950.000      80.682276 
4700.000 7000.000      80.643731 
4700.000 7050.000      80.602587 
4700.000 7100.000      80.558616 
4700.000 7150.000      80.511562 
4700.000 7200.000      80.461135 
4700.000 7250.000      80.407008 
4700.000 7300.000      80.348808 
4700.000 7350.000      80.286110 
4700.000 7400.000      80.218429 
4700.000 7450.000      80.145207 
4700.000 7500.000      80.065800 
4700.000 7550.000      79.979461 
4700.000 7600.000      79.885323 
4700.000 7650.000      79.782372 
4700.000 7700.000      79.669416 
4700.000 7750.000      79.545049 
4700.000 7800.000      79.407604 
4700.000 7850.000      79.255088 
4700.000 7900.000      79.085116 
4700.000 7950.000      78.894803 
4700.000 8000.000      78.680650 
4700.000 8050.000      78.438381 
4700.000 8100.000      78.162732 
4700.000 8150.000      77.847188 
4700.000 8200.000      77.483622 
4700.000 8250.000      77.061830 
4700.000 8300.000      76.568914 
4700.000 8350.000      75.988468 
4700.000 8400.000      75.299505 
4700.000 8450.000      74.475063 
4700.000 8500.000      73.480432 
4700.000 8550.000      72.270987 
4700.000 8600.000      70.789755 
4700.000 8650.000      68.965190 
4700.000 8700.000      66.710281 
4700.000 8750.000      63.925466 
4700.000 8800.000      60.509695 
4700.000 8850.000      56.385574 
4700.000 8900.000      51.542230 
4700.000 8950.000      46.086750 
4700.000 9000.000      40.271431 
4700.000 9050.000      34.454591 
4700.000 9100.000      28.995028 
4700.000 9150.000      24.146149 
4700.000 9200.000      20.016159 
4700.000 9250.000      16.594929 
4700.000 9300.000      13.805404 
4700.000 9350.000      11.546599 
4700.000 9400.000       9.718882 
4700.000 9450.000       8.235123 
4700.000 9500.000       7.023651 
4700.000 9550.000       6.027386 
4700.000 9600.000       5.201613 
4700.000 9650.000       4.511552 
4700.000 9700.000       3.930184 
4700.000 9750.000       3.436482 
4700.000 9800.000       3.014007 
4700.000 9850.000       2.649834 
4700.000 9900.000       2.333743 
4700.000 9950.000       2.057589 
4700.000 10000.000       1.814846 
4750.000   0.000       1.863372 
4750.000  50.000       2.114704 
4750.000 100.000       2.401651 
4750.000 150.000       2.731453 
4750.000 200.000       3.113231 
4750.000 250.000       3.558583 
4750.000 300.000       4.082374 
4750.000 350.000       4.703832 
4750.000 400.000       5.448032 
4750.000 450.000       6.347933 
4750.000 500.000       7.447144 
4750.000 550.000       8.803595 
4750.000 600.000      10.494245 
4750.000 650.000      12.620598 
4750.000 700.000      15.313909 
4750.000 750.000      18.736832 
4750.000 800.000      23.073995 
4750.000 850.000      28.497693 
4750.000 900.000      35.092160 
4750.000 950.000      42.739255 
4750.000 1000.000      51.030327 
4750.000 1050.000      59.324149 
4750.000 1100.000      66.978405 
4750.000 1150.000      73.582088 
4750.000 1200.000      79.014972 
4750.000 1250.000      83.360153 
4750.000 1300.000      86.789588 
4750.000 1350.000      89.487985 
4750.000 1400.000      91.618234 
4750.000 1450.000      93.311844 
4750.000 1500.000      94.670537 
4750.000 1550.000      95.771445 
4750.000 1600.000      96.672631 
4750.000 1650.000      97.417800 
4750.000 1700.000      98.039985 
4750.000 1750.000      98.564316 
4750.000 1800.000      99.010059 
4750.000 1850.000      99.392110 
4750.000 1900.000      99.722088 
4750.000 1950.000     100.009131 
4750.000 2000.000     100.260491 
4750.000 2050.000     100.481969 
4750.000 2100.000     100.678240 
4750.000 2150.000     100.853105 
4750.000 2200.000     101.009670 
4750.000 2250.000     101.150496 
4750.000 2300.000     101.277708 
4750.000 2350.000     101.393075 
4750.000 2400.000     101.498086 
4750.000 2450.000     101.593994 
4750.000 2500.000     101.681866 
4750.000 2550.000     101.762608 
4750.000 2600.000     101.837000 
4750.000 2650.000     101.905711 
4750.000 2700.000     101.969322 
4750.000 2750.000     102.028335 
4750.000 2800.000     102.083189 
4750.000 2850.000     102.134270 
4750.000 2900.000     102.181914 
4750.000 2950.000     102.226419 
4750.000 3000.000     102.268049 
4750.000 3050.000     102.307038 
4750.000 3100.000     102.343593 
4750.000 3150.000     102.377901 
4750.000 3200.000     102.410128 
4750.000 3250.000     102.440423 
4750.000 3300.000     102.468922 
4750.000 3350.000     102.495745 
4750.000 3400.000     102.521002 
4750.000 3450.000     102.544793 
4750.000 3500.000     102.567207 
4750.000 3550.000     102.588327 
4750.000 3600.000     102.608228 
4750.000 3650.000     102.626977 
4750.000 3700.000     102.644638 
4750.000 3750.000     102.661267 
4750.000 3800.000     102.676916 
4750.000 3850.000     102.691633 
4750.000 3900.000     102.705462 
4750.000 3950.000     102.718444 
4750.000 4000.000     102.730614 
4750.000 4050.000     102.742007 
4750.000 4100.000     102.752654 
4750.000 4150.000     102.762584 
4750.000 4200.000     102.771822 
4750.000 4250.000     102.780392 
4750.000 4300.000     102.788317 
4750.000 4350.000     102.795615 
4750.000 4400.000     102.802306 
4750.000 4450.000     102.808405 
4750.000 4500.000     102.813926 
4750.000 4550.000     102.818885 
4750.000 4600.000     102.823291 
4750.000 4650.000     102.827155 
4750.000 4700.000     102.830486 
4750.000 4750.000     102.833293 
4750.000 4800.000     102.835581 
4750.000 4850.000     102.837355 
4750.000 4900.000     102.838621 
4750.000 4950.000     102.839380 
4750.000 5000.000     102.839634 
4750.000 5050.000     102.839384 
4750.000 5100.000     102.838629 
4750.000 5150.000     102.837368 
4750.000 5200.000     102.835597 
4750.000 5250.000     102.833313 
4750.000 5300.000     102.830511 
4750.000 5350.000     102.827184 
4750.000 5400.000     102.823324 
4750.000 5450.000     102.818922 
4750.000 5500.000     102.813968 
4750.000 5550.000     102.808451 
4750.000 5600.000     102.802357 
4750.000 5650.000     102.795671 
4750.000 5700.000     102.788378 
4750.000 5750.000     102.780458 
4750.000 5800.000     102.771893 
4750.000 5850.000     102.762660 
4750.000 5900.000     102.752736 
4750.000 5950.000     102.742095 
4750.000 6000.000     102.730708 
4750.000 6050.000     102.718544 
4750.000 6100.000     102.705569 
4750.000 6150.000     102.691747 
4750.000 6200.000     102.677037 
4750.000 6250.000     102.661396 
4750.000 6300.000     102.644775 
4750.000 6350.000     102.627123 
4750.000 6400.000     102.608382 
4750.000 6450.000     102.588491 
4750.000 6500.000     102.567381 
4750.000 6550.000     102.544977 
4750.000 6600.000     102.521198 
4750.000 6650.000     102.495953 
4750.000 6700.000     102.469143 
4750.000 6750.000     102.440658 
4750.000 6800.000     102.410378 
4750.000 6850.000     102.378167 
4750.000 6900.000     102.343876 
4750.000 6950.000     102.307340 
4750.000 7000.000     102.268371 
4750.000 7050.000     102.226763 
4750.000 7100.000     102.182282 
4750.000 7150.000     102.134664 
4750.000 7200.000     102.083613 
4750.000 7250.000     102.028790 
4750.000 7300.000     101.969811 
4750.000 7350.000     101.906240 
4750.000 7400.000     101.837571 
4750.000 7450.000     101.763227 
4750.000 7500.000     101.682539 
4750.000 7550.000     101.594728 
4750.000 7600.000     101.498888 
4750.000 7650.000     101.393955 
4750.000 7700.000     101.278675 
4750.000 7750.000     101.151565 
4750.000 7800.000     101.010856 
4750.000 7850.000     100.854426 
4750.000 7900.000     100.679720 
4750.000 7950.000     100.483633 
4750.000 8000.000     100.262374 
4750.000 8050.000     100.011275 
4750.000 8100.000      99.724543 
4750.000 8150.000      99.394943 
4750.000 8200.000      99.013351 
4750.000 8250.000      98.568172 
4750.000 8300.000      98.044539 
4750.000 8350.000      97.423227 
4750.000 8400.000      96.679161 
4750.000 8450.000      95.779380 
4750.000 8500.000      94.680279 
4750.000 8550.000      93.323925 
4750.000 8600.000      91.633361 
4750.000 8650.000      89.507085 
4750.000 8700.000      86.813839 
4750.000 8750.000      83.390970 
4750.000 8800.000      79.053852 
4750.000 8850.000      73.630188 
4750.000 8900.000      67.035746 
4750.000 8950.000      59.388666 
4750.000 9000.000      51.097599 
4750.000 9050.000      42.803772 
4750.000 9100.000      35.149501 
4750.000 9150.000      28.545794 
4750.000 9200.000      23.112875 
4750.000 9250.000      18.767650 
4750.000 9300.000      15.338160 
4750.000 9350.000      12.639698 
4750.000 9400.000      10.509373 
4750.000 9450.000       8.815676 
4750.000 9500.000       7.456886 
4750.000 9550.000       6.355869 
4750.000 9600.000       5.454563 
4750.000 9650.000       4.709261 
4750.000 9700.000       4.086929 
4750.000 9750.000       3.562440 
4750.000 9800.000       3.116525 
4750.000 9850.000       2.734287 
4750.000 9900.000       2.404109 
4750.000 9950.000       2.116849 
4750.000 10000.000       1.865257 
4800.000   0.000       1.908474 
4800.000  50.000       2.167569 
4800.000 100.000       2.464288 
4800.000 150.000       2.806533 
4800.000 200.000       3.204356 
4800.000 250.000       3.670667 
4800.000 300.000       4.222221 
4800.000 350.000       4.880998 
4800.000 400.000       5.676153 
4800.000 450.000       6.646783 
4800.000 500.000       7.845870 
4800.000 550.000       9.345870 
4800.000 600.000      11.246502 
4800.000 650.000      13.685161 
4800.000 700.000      16.849517 
4800.000 750.000      20.989084 
4800.000 800.000      26.415221 
4800.000 850.000      33.463994 
4800.000 900.000      42.377474 
4800.000 950.000      53.074336 
4800.000 1000.000      64.914126 
4800.000 1050.000      76.758886 
4800.000 1100.000      87.468249 
4800.000 1150.000      96.396913 
4800.000 1200.000     103.459858 
4800.000 1250.000     108.897615 
4800.000 1300.000     113.046112 
4800.000 1350.000     116.217125 
4800.000 1400.000     118.660692 
4800.000 1450.000     120.564937 
4800.000 1500.000     122.067605 
4800.000 1550.000     123.268671 
4800.000 1600.000     124.240775 
4800.000 1650.000     125.037028 
4800.000 1700.000     125.696621 
4800.000 1750.000     126.248776 
4800.000 1800.000     126.715522 
4800.000 1850.000     127.113648 
4800.000 1900.000     127.456091 
4800.000 1950.000     127.752921 
4800.000 2000.000     128.012055 
4800.000 2050.000     128.239775 
4800.000 2100.000     128.441112 
4800.000 2150.000     128.620128 
4800.000 2200.000     128.780129 
4800.000 2250.000     128.923823 
4800.000 2300.000     129.053449 
4800.000 2350.000     129.170867 
4800.000 2400.000     129.277631 
4800.000 2450.000     129.375051 
4800.000 2500.000     129.464234 
4800.000 2550.000     129.546123 
4800.000 2600.000     129.621522 
4800.000 2650.000     129.691125 
4800.000 2700.000     129.755528 
4800.000 2750.000     129.815250 
4800.000 2800.000     129.870741 
4800.000 2850.000     129.922396 
4800.000 2900.000     129.970561 
4800.000 2950.000     130.015539 
4800.000 3000.000     130.057602 
4800.000 3050.000     130.096986 
4800.000 3100.000     130.133905 
4800.000 3150.000     130.168547 
4800.000 3200.000     130.201083 
4800.000 3250.000     130.231664 
4800.000 3300.000     130.260428 
4800.000 3350.000     130.287497 
4800.000 3400.000     130.312982 
4800.000 3450.000     130.336986 
4800.000 3500.000     130.359599 
4800.000 3550.000     130.380904 
4800.000 3600.000     130.400977 
4800.000 3650.000     130.419888 
4800.000 3700.000     130.437700 
4800.000 3750.000     130.454469 
4800.000 3800.000     130.470250 
4800.000 3850.000     130.485090 
4800.000 3900.000     130.499034 
4800.000 3950.000     130.512122 
4800.000 4000.000     130.524392 
4800.000 4050.000     130.535878 
4800.000 4100.000     130.546612 
4800.000 4150.000     130.556622 
4800.000 4200.000     130.565934 
4800.000 4250.000     130.574573 
4800.000 4300.000     130.582561 
4800.000 4350.000     130.589918 
4800.000 4400.000     130.596661 
4800.000 4450.000     130.602809 
4800.000 4500.000     130.608374 
4800.000 4550.000     130.613371 
4800.000 4600.000     130.617812 
4800.000 4650.000     130.621706 
4800.000 4700.000     130.625064 
4800.000 4750.000     130.627892 
4800.000 4800.000     130.630198 
4800.000 4850.000     130.631987 
4800.000 4900.000     130.633262 
4800.000 4950.000     130.634027 
4800.000 5000.000     130.634283 
4800.000 5050.000     130.634031 
4800.000 5100.000     130.633270 
4800.000 5150.000     130.631999 
4800.000 5200.000     130.630215 
4800.000 5250.000     130.627913 
4800.000 5300.000     130.625089 
4800.000 5350.000     130.621735 
4800.000 5400.000     130.617845 
4800.000 5450.000     130.613409 
4800.000 5500.000     130.608416 
4800.000 5550.000     130.602855 
4800.000 5600.000     130.596713 
4800.000 5650.000     130.589974 
4800.000 5700.000     130.582623 
4800.000 5750.000     130.574640 
4800.000 5800.000     130.566006 
4800.000 5850.000     130.556699 
4800.000 5900.000     130.546695 
4800.000 5950.000     130.535967 
4800.000 6000.000     130.524487 
4800.000 6050.000     130.512224 
4800.000 6100.000     130.499142 
4800.000 6150.000     130.485205 
4800.000 6200.000     130.470372 
4800.000 6250.000     130.454599 
4800.000 6300.000     130.437838 
4800.000 6350.000     130.420035 
4800.000 6400.000     130.401133 
4800.000 6450.000     130.381069 
4800.000 6500.000     130.359774 
4800.000 6550.000     130.337172 
4800.000 6600.000     130.313180 
4800.000 6650.000     130.287707 
4800.000 6700.000     130.260651 
4800.000 6750.000     130.231902 
4800.000 6800.000     130.201335 
4800.000 6850.000     130.168816 
4800.000 6900.000     130.134191 
4800.000 6950.000     130.097291 
4800.000 7000.000     130.057927 
4800.000 7050.000     130.015887 
4800.000 7100.000     129.970933 
4800.000 7150.000     129.922795 
4800.000 7200.000     129.871169 
4800.000 7250.000     129.815710 
4800.000 7300.000     129.756024 
4800.000 7350.000     129.691660 
4800.000 7400.000     129.622101 
4800.000 7450.000     129.546751 
4800.000 7500.000     129.464917 
4800.000 7550.000     129.375796 
4800.000 7600.000     129.278446 
4800.000 7650.000     129.171761 
4800.000 7700.000     129.054435 
4800.000 7750.000     128.924913 
4800.000 7800.000     128.781340 
4800.000 7850.000     128.621480 
4800.000 7900.000     128.442628 
4800.000 7950.000     128.241484 
4800.000 8000.000     128.013994 
4800.000 8050.000     127.755135 
4800.000 8100.000     127.458635 
4800.000 8150.000     127.116594 
4800.000 8200.000     126.718960 
4800.000 8250.000     126.252824 
4800.000 8300.000     125.701431 
4800.000 8350.000     125.042802 
4800.000 8400.000     124.247782 
4800.000 8450.000     123.277274 
4800.000 8500.000     122.078298 
4800.000 8550.000     120.578397 
4800.000 8600.000     118.677853 
4800.000 8650.000     116.239271 
4800.000 8700.000     113.074981 
4800.000 8750.000     108.935469 
4800.000 8800.000     103.509378 
4800.000 8850.000      96.460640 
4800.000 8900.000      87.547185 
4800.000 8950.000      76.850338 
4800.000 9000.000      65.010553 
4800.000 9050.000      53.165788 
4800.000 9100.000      42.456411 
4800.000 9150.000      33.527722 
4800.000 9200.000      26.464741 
4800.000 9250.000      21.026939 
4800.000 9300.000      16.878387 
4800.000 9350.000      13.707307 
4800.000 9400.000      11.263664 
4800.000 9450.000       9.359331 
4800.000 9500.000       7.856564 
4800.000 9550.000       6.655387 
4800.000 9600.000       5.683161 
4800.000 9650.000       4.886773 
4800.000 9700.000       4.227032 
4800.000 9750.000       3.674716 
4800.000 9800.000       3.207795 
4800.000 9850.000       2.809480 
4800.000 9900.000       2.466833 
4800.000 9950.000       2.169784 
4800.000 10000.000       1.910415 
4850.000   0.000       1.947606 
4850.000  50.000       2.213161 
4850.000 100.000       2.518018 
4850.000 150.000       2.870649 
4850.000 200.000       3.281908 
4850.000 250.000       3.765853 
4850.000 300.000       4.340915 
4850.000 350.000       5.031552 
4850.000 400.000       5.870657 
4850.000 450.000       6.903072 
4850.000 500.000       8.190780 
4850.000 550.000       9.820606 
4850.000 600.000      11.915621 
4850.000 650.000      14.651699 
4850.000 700.000      18.280323 
4850.000 750.000      23.155952 
4850.000 800.000      29.756178 
4850.000 850.000      38.655930 
4850.000 900.000      50.366809 
4850.000 950.000      64.935062 
4850.000 1000.000      81.422390 
4850.000 1050.000      97.918219 
4850.000 1100.000     112.507098 
4850.000 1150.000     124.241620 
4850.000 1200.000     133.162076 
4850.000 1250.000     139.778297 
4850.000 1300.000     144.665603 
4850.000 1350.000     148.302574 
4850.000 1400.000     151.044598 
4850.000 1450.000     153.143871 
4850.000 1500.000     154.776772 
4850.000 1550.000     156.066720 
4850.000 1600.000     157.100780 
4850.000 1650.000     157.941098 
4850.000 1700.000     158.632629 
4850.000 1750.000     159.208346 
4850.000 1800.000     159.692763 
4850.000 1850.000     160.104351 
4850.000 1900.000     160.457198 
4850.000 1950.000     160.762179 
4850.000 2000.000     161.027782 
4850.000 2050.000     161.260698 
4850.000 2100.000     161.466257 
4850.000 2150.000     161.648741 
4850.000 2200.000     161.811619 
4850.000 2250.000     161.957725 
4850.000 2300.000     162.089391 
4850.000 2350.000     162.208549 
4850.000 2400.000     162.316811 
4850.000 2450.000     162.415529 
4850.000 2500.000     162.505846 
4850.000 2550.000     162.588732 
4850.000 2600.000     162.665014 
4850.000 2650.000     162.735403 
4850.000 2700.000     162.800510 
4850.000 2750.000     162.860865 
4850.000 2800.000     162.916929 
4850.000 2850.000     162.969103 
4850.000 2900.000     163.017742 
4850.000 2950.000     163.063154 
4850.000 3000.000     163.105614 
4850.000 3050.000     163.145365 
4850.000 3100.000     163.182622 
4850.000 3150.000     163.217577 
4850.000 3200.000     163.250403 
4850.000 3250.000     163.281253 
4850.000 3300.000     163.310267 
4850.000 3350.000     163.337569 
4850.000 3400.000     163.363273 
4850.000 3450.000     163.387479 
4850.000 3500.000     163.410282 
4850.000 3550.000     163.431765 
4850.000 3600.000     163.452004 
4850.000 3650.000     163.471070 
4850.000 3700.000     163.489027 
4850.000 3750.000     163.505933 
4850.000 3800.000     163.521841 
4850.000 3850.000     163.536800 
4850.000 3900.000     163.550856 
4850.000 3950.000     163.564048 
4850.000 4000.000     163.576415 
4850.000 4050.000     163.587992 
4850.000 4100.000     163.598810 
4850.000 4150.000     163.608898 
4850.000 4200.000     163.618283 
4850.000 4250.000     163.626989 
4850.000 4300.000     163.635039 
4850.000 4350.000     163.642452 
4850.000 4400.000     163.649248 
4850.000 4450.000     163.655442 
4850.000 4500.000     163.661050 
4850.000 4550.000     163.666085 
4850.000 4600.000     163.670560 
4850.000 4650.000     163.674484 
4850.000 4700.000     163.677867 
4850.000 4750.000     163.680717 
4850.000 4800.000     163.683040 
4850.000 4850.000     163.684842 
4850.000 4900.000     163.686127 
4850.000 4950.000     163.686898 
4850.000 5000.000     163.687156 
4850.000 5050.000     163.686902 
4850.000 5100.000     163.686135 
4850.000 5150.000     163.684855 
4850.000 5200.000     163.683057 
4850.000 5250.000     163.680738 
4850.000 5300.000     163.677892 
4850.000 5350.000     163.674513 
4850.000 5400.000     163.670593 
4850.000 5450.000     163.666123 
4850.000 5500.000     163.661092 
4850.000 5550.000     163.655489 
4850.000 5600.000     163.649299 
4850.000 5650.000     163.642509 
4850.000 5700.000     163.635101 
4850.000 5750.000     163.627056 
4850.000 5800.000     163.618355 
4850.000 5850.000     163.608976 
4850.000 5900.000     163.598893 
4850.000 5950.000     163.588082 
4850.000 6000.000     163.576511 
4850.000 6050.000     163.564150 
4850.000 6100.000     163.550965 
4850.000 6150.000     163.536916 
4850.000 6200.000     163.521965 
4850.000 6250.000     163.506064 
4850.000 6300.000     163.489167 
4850.000 6350.000     163.471218 
4850.000 6400.000     163.452161 
4850.000 6450.000     163.431931 
4850.000 6500.000     163.410459 
4850.000 6550.000     163.387667 
4850.000 6600.000     163.363472 
4850.000 6650.000     163.337781 
4850.000 6700.000     163.310492 
4850.000 6750.000     163.281493 
4850.000 6800.000     163.250657 
4850.000 6850.000     163.217848 
4850.000 6900.000     163.182910 
4850.000 6950.000     163.145672 
4850.000 7000.000     163.105943 
4850.000 7050.000     163.063505 
4850.000 7100.000     163.018117 
4850.000 7150.000     162.969506 
4850.000 7200.000     162.917361 
4850.000 7250.000     162.861330 
4850.000 7300.000     162.801011 
4850.000 7350.000     162.735944 
4850.000 7400.000     162.665600 
4850.000 7450.000     162.589368 
4850.000 7500.000     162.506538 
4850.000 7550.000     162.416283 
4850.000 7600.000     162.317637 
4850.000 7650.000     162.209456 
4850.000 7700.000     162.090392 
4850.000 7750.000     161.958833 
4850.000 7800.000     161.812851 
4850.000 7850.000     161.650118 
4850.000 7900.000     161.467803 
4850.000 7950.000     161.262445 
4850.000 8000.000     161.029767 
4850.000 8050.000     160.764450 
4850.000 8100.000     160.459815 
4850.000 8150.000     160.107391 
4850.000 8200.000     159.696324 
4850.000 8250.000     159.212555 
4850.000 8300.000     158.637657 
4850.000 8350.000     157.947170 
4850.000 8400.000     157.108202 
4850.000 8450.000     156.075911 
4850.000 8500.000     154.788316 
4850.000 8550.000     153.158590 
4850.000 8600.000     151.063664 
4850.000 8650.000     148.327664 
4850.000 8700.000     144.699107 
4850.000 8750.000     139.823535 
4850.000 8800.000     133.223354 
4850.000 8850.000     124.323638 
4850.000 8900.000     112.612785 
4850.000 8950.000      98.044547 
4850.000 9000.000      81.557223 
4850.000 9050.000      65.061389 
4850.000 9100.000      50.472495 
4850.000 9150.000      38.737948 
4850.000 9200.000      29.817457 
4850.000 9250.000      23.201190 
4850.000 9300.000      18.313828 
4850.000 9350.000      14.676789 
4850.000 9400.000      11.934688 
4850.000 9450.000       9.835326 
4850.000 9500.000       8.202325 
4850.000 9550.000       6.912264 
4850.000 9600.000       5.878080 
4850.000 9650.000       5.037625 
4850.000 9700.000       4.345944 
4850.000 9750.000       3.770064 
4850.000 9800.000       3.285470 
4850.000 9850.000       2.873690 
4850.000 9900.000       2.520637 
4850.000 9950.000       2.215434 
4850.000 10000.000       1.949593 
4900.000   0.000       1.980160 
4900.000  50.000       2.250673 
4900.000 100.000       2.561758 
4900.000 150.000       2.922323 
4900.000 200.000       3.343845 
4900.000 250.000       3.841281 
4900.000 300.000       4.434383 
4900.000 350.000       5.149589 
4900.000 400.000       6.022824 
4900.000 450.000       7.103665 
4900.000 500.000       8.461659 
4900.000 550.000      10.196006 
4900.000 600.000      12.450469 
4900.000 650.000      15.436218 
4900.000 700.000      19.465788 
4900.000 750.000      24.999290 
4900.000 800.000      32.692396 
4900.000 850.000      43.396240 
4900.000 900.000      57.967821 
4900.000 950.000      76.667405 
4900.000 1000.000      98.245195 
4900.000 1050.000     119.835920 
4900.000 1100.000     138.566001 
4900.000 1150.000     153.170953 
4900.000 1200.000     163.902560 
4900.000 1250.000     171.616114 
4900.000 1300.000     177.163950 
4900.000 1350.000     181.203426 
4900.000 1400.000     184.196043 
4900.000 1450.000     186.455319 
4900.000 1500.000     188.193083 
4900.000 1550.000     189.553532 
4900.000 1600.000     190.636156 
4900.000 1650.000     191.510695 
4900.000 1700.000     192.226856 
4900.000 1750.000     192.820654 
4900.000 1800.000     193.318590 
4900.000 1850.000     193.740461 
4900.000 1900.000     194.101256 
4900.000 1950.000     194.412473 
4900.000 2000.000     194.683039 
4900.000 2050.000     194.919958 
4900.000 2100.000     195.128788 
4900.000 2150.000     195.313976 
4900.000 2200.000     195.479114 
4900.000 2250.000     195.627130 
4900.000 2300.000     195.760426 
4900.000 2350.000     195.880988 
4900.000 2400.000     195.990470 
4900.000 2450.000     196.090257 
4900.000 2500.000     196.181517 
4900.000 2550.000     196.265241 
4900.000 2600.000     196.342273 
4900.000 2650.000     196.413336 
4900.000 2700.000     196.479052 
4900.000 2750.000     196.539960 
4900.000 2800.000     196.596529 
4900.000 2850.000     196.649167 
4900.000 2900.000     196.698230 
4900.000 2950.000     196.744034 
4900.000 3000.000     196.786856 
4900.000 3050.000     196.826943 
4900.000 3100.000     196.864511 
4900.000 3150.000     196.899756 
4900.000 3200.000     196.932852 
4900.000 3250.000     196.963955 
4900.000 3300.000     196.993205 
4900.000 3350.000     197.020727 
4900.000 3400.000     197.046637 
4900.000 3450.000     197.071036 
4900.000 3500.000     197.094020 
4900.000 3550.000     197.115673 
4900.000 3600.000     197.136071 
4900.000 3650.000     197.155287 
4900.000 3700.000     197.173384 
4900.000 3750.000     197.190421 
4900.000 3800.000     197.206452 
4900.000 3850.000     197.221526 
4900.000 3900.000     197.235690 
4900.000 3950.000     197.248983 
4900.000 4000.000     197.261445 
4900.000 4050.000     197.273109 
4900.000 4100.000     197.284009 
