  X0   Y0   Z0
7715.79 8498.73 176.45
7745.66 8526.31 212.92
7765.23 8567.41 252.23
7775.69 8614.39 290.30
7779.23 8660.85 324.55
7778.12 8703.04 353.97
7774.17 8739.53 378.67
7768.66 8770.29 399.20
7762.37 8795.88 416.25
7755.83 8817.00 430.42
7749.31 8834.35 442.27
7743.01 8848.53 452.23
7736.99 8860.03 460.65
7731.31 8869.29 467.83
7725.96 8876.64 474.02
7720.92 8882.38 479.40
7716.13 8886.75 484.16
7711.55 8889.96 488.43
7707.10 8892.19 492.36
7702.71 8893.57 496.02
7698.29 8894.26 499.54
7693.74 8894.38 502.99
7688.97 8894.04 506.46
7683.88 8893.35 510.01
7678.32 8892.43 513.73
7672.17 8891.39 517.69
7665.25 8890.33 521.96
7657.40 8889.41 526.64
7648.44 8888.73 531.77
7638.06 8888.51 537.51
7625.95 8888.95 543.96
7611.77 8890.26 551.25
7594.97 8892.82 559.61
7574.78 8897.09 569.32
7550.35 8903.61 580.71
7520.09 8913.37 594.39
7482.24 8927.38 611.00
7432.12 8948.48 632.39
7356.48 8984.16 663.86
  0.00   0.00   0.00
  0.00   0.00   0.00
  0.00   0.00   0.00
  0.00   0.00   0.00
  0.00   0.00   0.00
  0.00   0.00   0.00
  0.00   0.00   0.00
  0.00   0.00   0.00
  0.00   0.00   0.00
3730.57 9434.89 386.62
3352.15 9217.75 331.40
3113.13 9097.93 296.41
2954.43 9023.94 272.73
2849.72 8980.19 256.75
2768.40 8949.50 244.06
2708.42 8930.32 234.44
2657.76 8916.06 226.12
2618.39 8907.61 219.46
2583.78 8901.27 213.45
2556.60 8898.59 208.57
2531.99 8896.68 204.03
2512.81 8897.35 200.36
2494.87 8897.96 196.84
2481.31 8900.62 194.06
2468.29 8902.75 191.32
2458.86 8906.62 189.24
2449.47 8909.62 187.12
2443.10 8914.17 185.59
2436.38 8917.55 183.95
2432.29 8922.41 182.87
2427.51 8925.80 181.60
2425.00 8930.64 180.87
2421.52 8933.69 179.86
2419.99 8938.16 179.36
2417.21 8940.46 178.48
2416.09 8944.12 178.07
2413.45 8945.11 177.14
2412.20 8947.37 176.65
2409.15 8946.25 175.43
2407.23 8946.16 174.58
2403.26 8941.78 172.71
2400.19 8937.99 171.08
2395.00 8929.30 168.04
2390.71 8921.07 165.12
2384.89 8910.77 160.47
2380.61 8904.03 156.14
2375.24 8919.58 148.87
2366.32 9153.11 128.94
2497.41 8218.07  61.04
2495.66 7396.03  53.92
2509.73 9078.44  38.20
2627.75 9634.40  61.75
2639.06 9299.68  90.00
2635.40 9043.30 131.43
2624.56 9062.44 156.35
2613.84 9139.01 171.53
2597.78 9244.52 188.52
2567.44 9403.67 214.43
2516.56 9633.01 251.74
4902.05 9643.93 470.50
4855.10 9387.80 399.92
4827.52 9214.66 351.24
4810.37 9086.65 313.47
4799.31 8983.40 279.65
4793.03 8896.02 244.53
4793.08 8830.56 204.86
4803.16 8810.66 162.13
4825.79 8860.57 122.60
4861.08 8997.89  92.04
4906.75 9213.49  75.40
4953.57 9383.63  76.75
4987.81 9325.33  92.50
5002.64 9018.63 111.21
5002.56 8679.60 122.68
4997.29 8538.87 122.59
4997.21 8641.44 110.90
5012.12 8837.52  91.91
5046.64 8935.66  75.88
5093.97 8891.82  74.39
5140.31 8802.81  91.16
5176.36 8755.29 122.22
5199.78 8766.19 162.88
5210.53 8827.76 207.88
5210.76 8922.65 251.60
5203.51 9036.77 293.43
5189.24 9172.93 338.05
5164.63 9348.67 393.23
5121.55 9596.99 470.64
5043.17 9979.97 590.90
7262.05 9925.96 810.13
7218.89 9497.42 632.38
7199.18 9223.89 517.31
7192.24 9032.75 434.91
7193.60 8887.98 369.74
7201.94 8771.29 313.57
7217.75 8674.57 262.52
7242.19 8596.37 216.00
7276.02 8538.94 175.83
7318.70 8504.86 145.14
7367.70 8493.54 127.28
7417.62 8496.79 124.55
7460.59 8498.68 136.01
7489.58 8486.77 155.96
7502.53 8465.47 175.84
7503.34 8452.91 188.10
7499.57 8463.75 188.69
7499.89 8495.58 177.52
7511.92 8528.74 158.51
7539.66 8541.46 139.10
7581.14 8529.68 127.81
7629.31 8509.64 130.34
7676.09 8500.61 147.48
7715.79 8511.24 176.46
7745.66 8540.20 212.94
7765.21 8581.47 252.24
7775.67 8627.81 290.31
7779.20 8673.26 324.55
7778.08 8714.34 353.97
7774.14 8749.80 378.66
7768.62 8779.67 399.19
7762.33 8804.52 416.23
7755.78 8825.06 430.41
7749.26 8841.96 442.25
7742.95 8855.79 452.21
7736.93 8867.04 460.64
7731.25 8876.12 467.82
7725.89 8883.36 474.01
7720.84 8889.04 479.40
7716.05 8893.39 484.16
7711.47 8896.61 488.44
7707.01 8898.87 492.36
7702.61 8900.32 496.03
7698.19 8901.08 499.55
7693.64 8901.29 503.01
7688.87 8901.05 506.48
7683.77 8900.45 510.04
7678.20 8899.62 513.77
7672.04 8898.68 517.73
7665.12 8897.72 522.02
7657.25 8896.87 526.69
7648.27 8896.26 531.84
7637.87 8896.09 537.59
7625.70 8896.58 544.07
7611.47 8897.92 551.40
7594.61 8900.46 559.78
7574.29 8904.72 569.56
7549.67 8911.21 581.03
7519.12 8920.90 594.83
7480.77 8934.90 611.65
7429.71 8956.08 633.44
7350.58 8993.01 666.35
  0.00   0.00   0.00
  0.00   0.00   0.00
  0.00   0.00   0.00
  0.00   0.00   0.00
  0.00   0.00   0.00
  0.00   0.00   0.00
  0.00   0.00   0.00
  0.00   0.00   0.00
  0.00   0.00   0.00
3711.22 9420.12 383.89
3350.91 9216.82 331.28
3113.38 9100.71 296.51
2954.94 9028.80 272.88
2850.19 8986.18 256.89
2768.97 8956.39 244.22
2708.88 8937.74 234.58
2658.07 8923.86 226.23
2618.65 8915.64 219.56
2584.02 8909.54 213.54
2556.80 8906.94 208.65
2532.14 8905.10 204.11
2512.91 8905.73 200.42
2494.95 8906.32 196.90
2481.38 8908.85 194.11
2468.33 8910.88 191.37
2458.90 8914.57 189.28
2449.50 8917.41 187.15
2443.13 8921.72 185.62
2436.41 8924.88 183.98
2432.32 8929.44 182.90
2427.54 8932.59 181.63
2425.03 8937.09 180.90
2421.55 8939.86 179.88
2420.02 8943.97 179.38
2417.24 8945.97 178.50
2416.13 8949.28 178.09
2413.48 8949.97 177.16
2412.23 8951.89 176.67
2409.18 8950.51 175.45
2407.25 8950.12 174.59
2403.28 8945.55 172.72
2400.20 8941.55 171.09
2395.01 8932.69 168.05
2390.71 8924.26 165.12
2384.90 8913.36 160.47
2380.61 8905.70 156.15
2375.24 8916.62 148.87
2366.32 9114.84 128.93
2497.41 8600.37  61.05
2495.65 8375.45  53.93
2627.72 9728.72  61.75
2639.03 9340.58  89.99
2635.39 9051.58 131.40
2624.57 9060.70 156.27
2613.89 9133.52 171.39
2597.93 9235.73 188.26
2567.80 9390.23 213.98
2517.31 9613.51 250.97
2421.06 9980.42 313.48
4901.25 9611.82 468.47
4854.81 9366.36 398.80
4827.45 9200.12 350.60
4810.39 9077.02 313.11
4799.36 8977.46 279.45
4793.09 8892.51 244.43
4793.13 8827.04 204.82
4803.19 8802.37 162.11
4825.82 8840.76 122.61
4861.10 8958.07  92.06
4906.77 9145.57  75.42
4953.58 9292.28  76.76
4987.81 9236.24  92.51
5002.64 8963.36 111.21
5002.56 8669.70 122.68
4997.29 8560.65 122.59
4997.22 8670.88 110.91
5012.12 8857.52  91.93
5046.63 8944.03  75.91
5093.94 8895.44  74.42
5140.27 8807.02  91.18
5176.31 8760.80 122.23
5199.71 8771.53 162.86
5210.45 8831.07 207.81
5210.67 8922.72 251.45
5203.43 9033.08 293.13
5189.21 9165.02 337.52
5164.73 9335.60 392.33
5121.92 9576.79 469.13
5044.13 9948.74 588.28
7262.11 9888.17 804.73
7219.32 9476.86 629.68
7199.65 9213.68 515.85
7192.67 9029.66 434.11
7193.95 8890.29 369.31
7202.21 8777.94 313.36
7217.95 8684.71 262.45
7242.32 8609.09 216.00
7276.10 8553.18 175.86
7318.75 8519.52 145.18
7367.72 8507.77 127.31
7417.63 8510.56 124.58
7460.59 8513.10 136.03
7489.57 8503.32 155.97
7502.52 8484.41 175.85
7503.33 8472.33 188.10
7499.56 8480.37 188.68
7499.88 8506.72 177.51
7511.92 8534.34 158.50
7539.66 8544.37 139.08
7581.15 8533.69 127.80
7629.32 8517.00 130.34
7676.10 8511.47 147.49
7715.79 8524.52 176.47
7745.65 8554.58 212.95
7765.20 8595.82 252.26
7775.64 8641.40 290.32
7779.17 8685.74 324.55
7778.04 8725.66 353.97
7774.09 8760.04 378.65
7768.57 8788.99 399.18
7762.28 8813.08 416.21
7755.72 8833.00 430.39
7749.20 8849.42 442.24
7742.88 8862.88 452.20
7736.86 8873.85 460.63
7731.17 8882.73 467.82
7725.80 8889.83 474.01
7720.75 8895.42 479.40
7715.95 8899.73 484.17
7711.35 8902.93 488.46
7706.89 8905.21 492.39
7702.49 8906.70 496.07
7698.05 8907.51 499.59
7693.50 8907.78 503.05
7688.72 8907.61 506.53
7683.62 8907.09 510.09
7678.04 8906.34 513.83
7671.87 8905.46 517.80
7664.91 8904.58 522.11
7657.03 8903.79 526.80
7648.03 8903.23 531.96
7637.61 8903.08 537.72
7625.42 8903.58 544.22
7611.13 8904.91 551.57
7594.17 8907.44 560.01
7573.75 8911.65 569.83
7548.88 8918.10 581.41
7517.99 8927.74 595.36
7479.06 8941.70 612.43
7427.06 8962.90 634.61
7344.45 9000.93 668.95
  0.00   0.00   0.00
  0.00   0.00   0.00
  0.00   0.00   0.00
  0.00   0.00   0.00
  0.00   0.00   0.00
  0.00   0.00   0.00
  0.00   0.00   0.00
  0.00   0.00   0.00
  0.00   0.00   0.00
3690.18 9403.82 380.92
3349.44 9214.55 331.13
3113.47 9102.23 296.60
2955.56 9032.59 273.05
2850.93 8991.19 257.09
2769.61 8962.25 244.40
2709.44 8944.16 234.75
2658.60 8930.75 226.39
2619.11 8922.80 219.71
2584.40 8916.93 213.67
2557.10 8914.42 208.77
2532.41 8912.68 204.21
2513.16 8913.32 200.52
2495.16 8913.88 196.98
2481.53 8916.32 194.18
2468.46 8918.26 191.43
2459.01 8921.77 189.34
2449.60 8924.47 187.21
2443.22 8928.55 185.67
2436.49 8931.51 184.02
2432.39 8935.81 182.94
2427.61 8938.72 181.67
2425.09 8942.91 180.93
2421.60 8945.41 179.91
2420.08 8949.20 179.41
2417.29 8950.93 178.53
2416.17 8953.90 178.12
2413.52 8954.34 177.18
2412.27 8955.94 176.69
2409.21 8954.33 175.47
2407.28 8953.68 174.61
2403.30 8948.95 172.73
2400.21 8944.77 171.10
2395.02 8935.79 168.06
2390.72 8927.20 165.13
2384.90 8915.81 160.47
2380.61 8907.36 156.15
2375.24 8914.16 148.87
2366.32 9080.60 128.93
2362.71 9974.09  89.71
2497.40 8881.78  61.05
2495.64 9099.10  53.93
2627.68 9776.90  61.76
2639.00 9359.31  89.98
2635.37 9053.95 131.36
2624.57 9056.58 156.19
2613.95 9126.00 171.23
2598.10 9224.74 187.97
2568.21 9374.23 213.47
2518.17 9590.79 250.10
2422.89 9946.57 311.92
4982.22 9955.45 574.95
4900.37 9578.86 466.22
4854.49 9344.38 397.57
4827.37 9185.24 349.90
4810.41 9067.24 312.71
4799.42 8971.52 279.23
4793.15 8889.19 244.32
4793.18 8824.03 204.78
4803.24 8795.16 162.10
4825.85 8823.06 122.61
4861.13 8922.09  92.07
4906.78 9084.12  75.43
4953.59 9210.20  76.77
4987.82 9157.46  92.51
5002.64 8916.16 111.21
5002.57 8662.85 122.68
4997.30 8579.60 122.60
4997.22 8692.74 110.92
5012.12 8867.88  91.95
5046.61 8943.68  75.93
5093.92 8892.82  74.45
5140.23 8807.33  91.20
5176.25 8763.95 122.23
5199.64 8775.43 162.83
5210.36 8833.39 207.73
5210.57 8921.89 251.27
5203.35 9028.39 292.80
5189.18 9155.86 336.93
5164.84 9320.89 391.32
5122.35 9554.41 467.41
5045.27 9914.44 585.25
7262.15 9848.95 798.64
7219.80 9455.50 626.67
7200.18 9202.97 514.24
7193.15 9026.26 433.23
7194.34 8892.41 368.85
7202.51 8784.50 313.14
7218.17 8694.82 262.37
7242.47 8621.82 215.99
7276.19 8567.45 175.89
7318.80 8534.19 145.21
7367.75 8521.94 127.35
7417.63 8524.13 124.61
7460.58 8527.12 136.04
7489.56 8519.34 155.98
7502.51 8502.85 175.85
7503.32 8491.56 188.09
7499.55 8497.38 188.67
7499.87 8518.97 177.49
7511.91 8541.66 158.48
7539.67 8549.26 139.07
7581.17 8539.55 127.79
7629.34 8525.87 130.34
7676.11 8523.43 147.50
7715.79 8538.57 176.49
7745.64 8569.47 212.97
7765.18 8610.51 252.27
7775.61 8655.21 290.33
7779.12 8698.36 324.55
7778.00 8737.05 353.96
7774.04 8770.31 378.64
7768.51 8798.31 399.16
7762.21 8821.60 416.19
7755.65 8840.89 430.37
7749.12 8856.79 442.22
7742.80 8869.86 452.19
7736.77 8880.53 460.62
7731.07 8889.18 467.82
7725.69 8896.11 474.02
7720.63 8901.59 479.42
7715.82 8905.82 484.20
7711.21 8908.99 488.49
7706.74 8911.26 492.43
7702.33 8912.76 496.11
7697.88 8913.60 499.65
7693.31 8913.91 503.12
7688.52 8913.79 506.61
7683.41 8913.32 510.18
7677.82 8912.62 513.93
7671.64 8911.78 517.91
7664.67 8910.95 522.23
7656.76 8910.19 526.94
7647.73 8909.66 532.11
7637.25 8909.54 537.91
7625.01 8910.03 544.43
7610.68 8911.32 551.81
7593.63 8913.80 560.29
7573.10 8917.93 570.16
7548.03 8924.30 581.84
7516.78 8933.84 595.94
7477.29 8947.72 613.25
7424.25 8968.91 635.86
7338.05 9007.93 671.68
  0.00   0.00   0.00
  0.00   0.00   0.00
  0.00   0.00   0.00
  0.00   0.00   0.00
  0.00   0.00   0.00
  0.00   0.00   0.00
  0.00   0.00   0.00
  0.00   0.00   0.00
  0.00   0.00   0.00
3667.13 9385.85 377.68
3347.92 9211.06 331.00
3113.94 9102.81 296.77
2956.42 9035.35 273.27
2851.91 8995.26 257.33
2770.53 8967.22 244.63
2710.19 8949.67 234.96
2659.21 8936.72 226.58
2619.70 8929.09 219.88
2584.90 8923.46 213.83
2557.59 8921.10 208.92
2532.83 8919.49 204.35
2513.52 8920.11 200.65
2495.44 8920.67 197.09
2481.79 8923.02 194.28
2468.69 8924.91 191.52
2459.21 8928.27 189.42
2449.78 8930.84 187.28
2443.36 8934.71 185.73
2436.61 8937.50 184.08
2432.50 8941.55 182.99
2427.70 8944.25 181.71
2425.18 8948.16 180.97
2421.68 8950.44 179.95
2420.15 8953.92 179.45
2417.36 8955.41 178.56
2416.24 8958.07 178.15
2413.58 8958.28 177.21
2412.32 8959.59 176.71
2409.25 8957.80 175.49
2407.31 8956.90 174.63
2403.32 8952.05 172.75
2400.23 8947.73 171.12
2395.03 8938.69 168.07
2390.73 8930.00 165.14
2384.90 8918.22 160.48
2380.61 8909.11 156.15
2375.24 8912.25 148.87
2366.32 9050.19 128.93
2362.72 9813.12  89.71
2497.40 9078.26  61.06
2495.63 9606.22  53.95
2627.64 9786.07  61.76
2638.96 9359.21  89.96
2635.35 9051.34 131.32
2624.58 9050.52 156.10
2614.01 9116.79 171.05
2598.29 9211.86 187.65
2568.66 9355.95 212.90
2519.14 9565.13 249.11
2424.98 9908.64 310.14
4979.52 9901.93 569.89
4899.38 9545.28 463.74
4854.15 9322.07 396.22
4827.28 9170.24 349.14
4810.43 9057.46 312.28
4799.49 8965.73 279.00
4793.22 8886.20 244.21
4793.24 8821.65 204.73
4803.28 8789.16 162.09
4825.88 8807.57 122.62
4861.15 8889.94  92.08
4906.80 9028.94  75.45
4953.60 9136.91  76.79
4987.82 9088.27  92.52
5002.65 8876.35 111.21
5002.57 8658.86 122.68
4997.30 8596.32 122.60
4997.22 8708.43 110.93
5012.12 8870.48  91.97
5046.60 8936.40  75.97
5093.89 8885.31  74.48
5140.19 8804.64  91.23
5176.19 8765.32 122.24
5199.56 8778.25 162.81
5210.26 8834.98 207.65
5210.46 8920.40 251.08
5203.25 9022.90 292.43
5189.14 9145.65 336.27
5164.96 9304.76 390.18
5122.83 9530.05 465.46
5046.59 9877.21 581.75
7262.14 9808.47 791.78
7220.31 9433.49 623.32
7200.77 9191.91 512.46
7193.68 9022.67 432.27
7194.78 8894.48 368.35
7202.85 8791.08 312.91
7218.41 8705.01 262.28
7242.63 8634.69 215.99
7276.29 8581.88 175.92
7318.85 8549.01 145.26
7367.77 8536.22 127.39
7417.63 8537.70 124.63
7460.57 8540.98 136.06
7489.55 8535.04 155.98
7502.50 8520.96 175.85
7503.31 8510.69 188.09
7499.53 8514.77 188.66
7499.86 8532.25 177.48
7511.91 8550.57 158.46
7539.67 8556.01 139.05
7581.18 8547.17 127.78
7629.35 8536.19 130.34
7676.12 8536.50 147.51
7715.79 8553.41 176.51
7745.63 8584.90 212.99
7765.15 8625.56 252.29
7775.57 8669.26 290.34
7779.07 8711.14 324.56
7777.93 8748.55 353.96
7773.97 8780.67 378.63
7768.43 8807.67 399.14
7762.13 8830.14 416.17
7755.57 8848.76 430.35
7749.03 8864.13 442.21
7742.70 8876.76 452.18
7736.65 8887.10 460.62
7730.94 8895.50 467.83
7725.56 8902.24 474.04
7720.48 8907.58 479.45
7715.66 8911.72 484.23
7711.04 8914.82 488.54
7706.55 8917.06 492.49
7702.13 8918.54 496.19
7697.67 8919.39 499.73
7693.09 8919.72 503.22
7688.28 8919.61 506.72
7683.13 8919.18 510.31
7677.54 8918.50 514.07
7671.34 8917.68 518.06
7664.35 8916.86 522.39
7656.42 8916.13 527.12
7647.36 8915.58 532.32
7636.84 8915.45 538.13
7624.56 8915.91 544.68
7610.12 8917.18 552.11
7592.96 8919.59 560.65
7572.33 8923.61 570.57
7547.04 8929.86 582.34
7515.49 8939.27 596.58
7475.38 8953.03 614.15
7421.37 8974.10 637.16
7331.52 9013.98 674.49
  0.00   0.00   0.00
  0.00   0.00   0.00
  0.00   0.00   0.00
  0.00   0.00   0.00
  0.00   0.00   0.00
  0.00   0.00   0.00
  0.00   0.00   0.00
  0.00   0.00   0.00
  0.00   0.00   0.00
3642.23 9366.74 374.19
3346.33 9206.54 330.87
3114.29 9102.23 296.93
2957.49 9037.18 273.54
2853.03 8998.38 257.61
2771.52 8971.23 244.89
2711.08 8954.27 235.20
2660.03 8941.82 226.81
2620.48 8934.53 220.10
2585.65 8929.23 214.05
2558.23 8927.00 209.11
2533.37 8925.49 204.52
2513.98 8926.14 200.80
2495.86 8926.73 197.23
2482.16 8929.04 194.41
2469.00 8930.88 191.64
2459.49 8934.13 189.52
2450.01 8936.59 187.37
2443.57 8940.28 185.82
2436.79 8942.92 184.15
2432.66 8946.75 183.06
2427.84 8949.26 181.77
2425.31 8952.92 181.02
2421.79 8954.99 180.00
2420.25 8958.19 179.49
2417.44 8959.48 178.60
2416.31 8961.86 178.18
2413.64 8961.87 177.24
2412.37 8962.92 176.74
2409.29 8960.97 175.51
2407.35 8959.87 174.65
2403.35 8954.95 172.77
2400.25 8950.52 171.13
2395.04 8941.47 168.08
2390.73 8932.73 165.14
2384.91 8920.68 160.48
2380.61 8911.03 156.15
2375.24 8910.95 148.87
2366.33 9023.41 128.92
2362.73 9669.65  89.70
2497.40 9204.69  61.07
2495.63 9933.95  53.97
2627.59 9763.13  61.77
2638.92 9343.57  89.94
2635.33 9044.68 131.27
2624.59 9042.93 156.00
2614.08 9106.26 170.85
2598.50 9197.43 187.29
2569.16 9335.73 212.27
2520.23 9536.84 248.01
2427.37 9866.92 308.11
4976.49 9847.50 564.25
4898.30 9511.32 461.00
4853.77 9299.66 394.75
4827.20 9155.29 348.31
4810.47 9047.88 311.81
4799.56 8960.26 278.74
4793.30 8883.69 244.09
4793.31 8820.04 204.68
4803.33 8784.50 162.08
4825.92 8794.37 122.62
4861.18 8861.64  92.10
4906.81 8979.87  75.47
4953.60 9071.96  76.80
4987.83 9028.01  92.53
5002.65 8843.31 111.21
5002.58 8657.54 122.68
4997.30 8611.36 122.60
4997.22 8719.30 110.93
5012.12 8867.12  91.99
5046.59 8923.91  76.00
5093.86 8874.21  74.52
5140.14 8799.81  91.25
5176.12 8765.48 122.25
5199.47 8780.37 162.78
5210.15 8836.13 207.56
5210.34 8918.48 250.88
5203.14 9016.84 292.02
5189.10 9134.63 335.53
5165.10 9287.44 388.90
5123.38 9503.94 463.25
5048.14 9837.27 577.73
6900.59 8546.47  16.53
7262.08 9766.88 784.06
7220.87 9410.99 619.61
7201.41 9180.64 510.51
7194.26 9019.04 431.22
7195.25 8896.60 367.80
7203.22 8797.80 312.66
7218.67 8715.41 262.20
7242.81 8647.80 215.99
7276.39 8596.59 175.96
7318.90 8564.13 145.31
7367.78 8550.78 127.43
7417.63 8551.48 124.66
7460.56 8554.90 136.07
7489.54 8550.63 155.99
7502.49 8538.89 175.84
7503.29 8529.80 188.08
7499.52 8532.55 188.64
7499.85 8546.50 177.45
7511.91 8560.97 158.43
7539.68 8564.51 139.02
7581.20 8556.48 127.77
7629.37 8547.94 130.34
7676.13 8550.66 147.53
7715.79 8569.04 176.53
7745.62 8600.90 213.02
7765.12 8641.02 252.32
7775.52 8683.60 290.36
7779.01 8724.14 324.56
7777.86 8760.22 353.95
7773.88 8791.14 378.61
7768.34 8817.11 399.12
7762.03 8838.74 416.15
7755.46 8856.66 430.33
7748.91 8871.46 442.20
7742.57 8883.65 452.17
7736.52 8893.63 460.63
7730.79 8901.74 467.84
7725.40 8908.26 474.06
7720.30 8913.44 479.49
7715.47 8917.45 484.29
7710.83 8920.47 488.60
7706.33 8922.65 492.57
7701.89 8924.09 496.28
7697.41 8924.92 499.84
7692.81 8925.23 503.34
7687.99 8925.13 506.86
7682.82 8924.70 510.47
7677.19 8924.04 514.25
7670.96 8923.23 518.26
7663.96 8922.39 522.60
7656.00 8921.64 527.35
7646.91 8921.07 532.57
7636.35 8920.90 538.41
7624.01 8921.30 545.00
7609.50 8922.49 552.46
7592.22 8924.81 561.05
7571.42 8928.72 571.05
7545.93 8934.81 582.92
7514.05 8944.03 597.30
7473.36 8957.64 615.13
7418.34 8978.55 638.56
7324.84 9019.09 677.39
  0.00   0.00   0.00
  0.00   0.00   0.00
  0.00   0.00   0.00
  0.00   0.00   0.00
  0.00   0.00   0.00
  0.00   0.00   0.00
  0.00   0.00   0.00
  0.00   0.00   0.00
  0.00   0.00   0.00
3614.98 9346.35 370.38
3344.20 9200.78 330.68
3114.87 9100.76 297.13
2958.57 9038.00 273.83
2854.12 9000.47 257.90
2772.73 8974.40 245.20
2712.27 8958.11 235.50
2661.07 8946.16 227.09
2621.45 8939.24 220.37
2586.50 8934.23 214.29
2558.97 8932.15 209.33
2534.04 8930.81 204.72
2514.57 8931.51 200.98
2496.38 8932.16 197.40
2482.63 8934.44 194.57
2469.41 8936.26 191.78
2459.84 8939.40 189.65
2450.31 8941.78 187.48
2443.84 8945.31 185.92
2437.02 8947.82 184.24
2432.86 8951.44 183.14
2428.02 8953.80 181.84
2425.46 8957.22 181.09
2421.93 8959.12 180.06
2420.37 8962.08 179.54
2417.55 8963.18 178.64
2416.41 8965.32 178.23
2413.72 8965.17 177.28
2412.44 8965.99 176.77
2409.35 8963.93 175.54
2407.39 8962.67 174.67
2403.38 8957.71 172.78
2400.28 8953.22 171.14
2395.06 8944.21 168.09
2390.74 8935.48 165.15
2384.91 8923.25 160.48
2380.62 8913.18 156.15
2375.24 8910.30 148.87
2366.33 9000.09 128.92
2362.75 9542.33  89.70
2497.40 9275.20  61.07
2627.53 9714.95  61.78
2638.87 9315.71  89.92
2635.30 9034.93 131.22
2624.59 9034.25 155.89
2614.16 9094.76 170.63
2598.73 9181.82 186.89
2569.72 9313.94 211.57
2521.45 9506.30 246.78
2430.08 9821.81 305.82
4973.06 9792.46 557.96
4897.09 9477.24 457.99
4853.36 9277.35 393.14
4827.11 9140.59 347.40
4810.51 9038.65 311.30
4799.65 8955.26 278.47
4793.39 8881.81 243.95
4793.38 8819.34 204.63
4803.39 8781.28 162.07
4825.96 8783.55 122.63
4861.21 8837.18  92.12
4906.83 8936.74  75.49
4953.61 9014.94  76.82
4987.83 8976.03  92.53
5002.65 8816.45 111.21
5002.58 8658.69 122.68
4997.31 8625.24 122.60
4997.23 8726.60 110.94
5012.12 8859.50  92.01
5046.58 8907.89  76.04
5093.82 8860.80  74.56
5140.08 8793.70  91.29
5176.05 8764.97 122.26
5199.38 8782.17 162.76
5210.03 8837.10 207.46
5210.20 8916.38 250.65
5203.01 9010.47 291.57
5189.04 9123.04 334.72
5165.24 9269.19 387.49
5124.00 9476.34 460.77
5049.93 9794.88 573.12
6910.47 8619.86  38.90
7261.94 9724.38 775.37
7221.48 9388.18 615.49
7202.12 9169.32 508.38
7194.90 9015.51 430.08
7195.78 8898.91 367.22
7203.62 8804.77 312.39
7218.96 8726.11 262.11
7243.00 8661.26 216.00
7276.50 8611.69 176.01
7318.95 8579.68 145.36
7367.80 8565.78 127.47
7417.63 8565.65 124.69
7460.55 8569.07 136.09
7489.53 8566.29 155.99
7502.48 8556.79 175.83
7503.28 8548.95 188.06
7499.50 8550.72 188.62
7499.84 8561.64 177.42
7511.91 8572.77 158.40
7539.70 8574.66 138.99
7581.22 8567.42 127.75
7629.40 8561.05 130.34
7676.15 8565.89 147.55
7715.79 8585.48 176.56
7745.60 8617.49 213.06
7765.07 8656.90 252.35
7775.45 8698.25 290.38
7778.93 8737.38 324.57
7777.76 8772.08 353.95
7773.78 8801.76 378.60
7768.23 8826.68 399.10
7761.91 8847.42 416.13
7755.33 8864.62 430.32
7748.77 8878.83 442.19
7742.42 8890.53 452.17
7736.35 8900.13 460.64
7730.61 8907.93 467.87
7725.20 8914.21 474.10
7720.09 8919.19 479.54
7715.23 8923.05 484.36
7710.59 8925.96 488.69
7706.07 8928.05 492.67
7701.60 8929.43 496.40
7697.11 8930.21 499.98
7692.49 8930.49 503.49
7687.64 8930.36 507.02
7682.45 8929.91 510.66
7676.79 8929.23 514.46
7670.54 8928.41 518.49
7663.50 8927.55 522.86
7655.50 8926.77 527.63
7646.37 8926.16 532.88
7635.78 8925.92 538.74
7623.38 8926.24 545.36
7608.80 8927.32 552.86
7591.41 8929.52 561.51
7570.44 8933.29 571.59
7544.74 8939.19 583.55
7512.49 8948.22 598.10
7471.11 8961.66 616.22
7415.05 8982.36 640.08
7317.91 9023.38 680.42
  0.00   0.00   0.00
  0.00   0.00   0.00
  0.00   0.00   0.00
  0.00   0.00   0.00
  0.00   0.00   0.00
  0.00   0.00   0.00
  0.00   0.00   0.00
  0.00   0.00   0.00
  0.00   0.00   0.00
3585.45 9324.86 366.26
3341.78 9193.94 330.46
3115.23 9098.22 297.33
2959.76 9037.90 274.15
2855.57 9001.82 258.26
2774.19 8976.79 245.56
2713.59 8961.15 235.84
2662.24 8949.75 227.40
2622.50 8943.19 220.66
2587.42 8938.48 214.55
2559.86 8936.63 209.59
2534.84 8935.47 204.96
2515.29 8936.24 201.20
2497.03 8936.99 197.60
2483.20 8939.25 194.75
2469.90 8941.06 191.94
2460.28 8944.12 189.80
2450.70 8946.44 187.62
2444.16 8949.82 186.04
2437.30 8952.23 184.35
2433.11 8955.67 183.23
2428.23 8957.90 181.92
2425.65 8961.12 181.16
2422.09 8962.88 180.12
2420.52 8965.62 179.60
2417.67 8966.59 178.69
2416.52 8968.51 178.27
2413.81 8968.24 177.32
2412.52 8968.87 176.81
2409.41 8966.74 175.57
2407.44 8965.35 174.69
2403.42 8960.41 172.80
2400.30 8955.89 171.15
2395.07 8946.99 168.09
2390.75 8938.31 165.15
2384.92 8926.02 160.49
2380.62 8915.64 156.15
2375.24 8910.36 148.86
2366.33 8980.05 128.91
2362.77 9429.81  89.69
2497.40 9302.16  61.08
2627.47 9647.90  61.79
2638.82 9278.75  89.90
2635.28 9023.01 131.17
2624.60 9024.94 155.77
2614.24 9082.70 170.40
2598.98 9165.41 186.46
2570.33 9290.99 210.80
2522.79 9473.98 245.42
2433.13 9773.80 303.25
4969.21 9737.13 550.96
4895.75 9443.29 454.67
4852.92 9255.35 391.39
4827.02 9126.32 346.43
4810.56 9029.95 310.76
4799.74 8950.88 278.18
4793.48 8880.68 243.81
4793.46 8819.67 204.58
4803.45 8779.62 162.06
4826.00 8775.18 122.64
4861.24 8816.59  92.14
4906.85 8899.41  75.52
4953.62 8965.47  76.84
4987.83 8931.77  92.54
5002.66 8795.23 111.21
5002.58 8662.17 122.68
4997.31 8638.42 122.60
4997.23 8731.48 110.95
5012.12 8849.18  92.04
5046.57 8889.84  76.08
5093.79 8846.26  74.61
5140.03 8787.11  91.32
5175.97 8764.34 122.28
5199.27 8784.02 162.73
5209.90 8838.18 207.36
5210.05 8914.34 250.41
5202.86 9004.02 291.08
5188.98 9111.15 333.83
5165.40 9250.31 385.92
5124.70 9447.58 457.99
5052.01 9750.35 567.87
6918.13 8677.53  54.73
7261.71 9681.19 765.60
7222.13 9365.24 610.92
7202.91 9158.11 506.03
7195.62 9012.20 428.85
7196.37 8901.53 366.59
7204.07 8812.10 312.11
7219.28 8737.22 262.03
7243.21 8675.18 216.01
7276.62 8627.30 176.07
7319.01 8595.80 145.42
7367.81 8581.37 127.52
7417.62 8580.36 124.72
7460.53 8583.67 136.09
7489.51 8582.19 155.98
7502.47 8574.77 175.82
7503.27 8568.21 188.05
7499.49 8569.26 188.59
7499.82 8577.62 177.39
7511.91 8585.87 158.36
7539.71 8586.38 138.96
7581.25 8579.89 127.74
7629.43 8575.51 130.35
7676.17 8582.18 147.57
7715.79 8602.72 176.60
7745.57 8634.68 213.10
7765.02 8673.24 252.39
7775.37 8713.26 290.41
7778.83 8750.90 324.58
7777.65 8784.17 353.94
7773.65 8812.57 378.59
7768.09 8836.40 399.09
7761.76 8856.23 416.12
7755.17 8872.67 430.31
7748.60 8886.26 442.18
7742.23 8897.46 452.18
7736.15 8906.64 460.66
7730.39 8914.10 467.90
7724.96 8920.11 474.15
7719.83 8924.87 479.61
7714.96 8928.56 484.45
7710.29 8931.32 488.80
7705.75 8933.30 492.79
7701.27 8934.59 496.54
7696.75 8935.30 500.14
7692.10 8935.52 503.68
7687.24 8935.34 507.23
7682.02 8934.85 510.89
7676.33 8934.13 514.71
7670.04 8933.26 518.77
7662.97 8932.35 523.16
7654.94 8931.51 527.95
7645.76 8930.84 533.23
7635.12 8930.52 539.13
7622.66 8930.73 545.78
7607.99 8931.71 553.33
7590.45 8933.77 562.05
7569.40 8937.32 572.18
7543.44 8943.04 584.26
7510.85 8951.82 598.95
7468.80 8965.04 617.36
7411.65 8985.49 641.67
7310.82 9026.84 683.53
  0.00   0.00   0.00
  0.00   0.00   0.00
  0.00   0.00   0.00
  0.00   0.00   0.00
  0.00   0.00   0.00
  0.00   0.00   0.00
  0.00   0.00   0.00
  0.00   0.00   0.00
  0.00   0.00   0.00
3554.26 9302.81 361.91
3339.31 9186.29 330.25
3115.63 9094.79 297.54
2960.99 9036.91 274.49
2856.92 9002.23 258.62
2775.62 8978.29 245.93
2714.94 8963.37 236.20
2663.51 8952.56 227.74
2623.72 8946.41 220.99
2588.55 8942.05 214.87
2560.95 8940.45 209.89
2535.82 8939.50 205.24
2516.15 8940.35 201.46
2497.79 8941.19 197.83
2483.88 8943.46 194.96
2470.50 8945.29 192.13
2460.80 8948.29 189.97
2451.14 8950.57 187.77
2444.56 8953.85 186.17
2437.65 8956.20 184.47
2433.42 8959.50 183.34
2428.50 8961.62 182.02
2425.88 8964.67 181.25
2422.29 8966.32 180.20
2420.69 8968.87 179.67
2417.82 8969.72 178.75
2416.64 8971.46 178.32
2413.92 8971.11 177.36
2412.61 8971.60 176.84
2409.48 8969.44 175.60
2407.50 8967.96 174.72
2403.46 8963.08 172.82
2400.33 8958.59 171.17
2395.09 8949.85 168.10
2390.76 8941.30 165.15
2384.92 8929.03 160.48
2380.62 8918.47 156.15
2375.25 8911.15 148.86
2366.34 8963.15 128.90
2362.79 9330.97  89.68
2373.78 9828.33  62.18
2502.70 9805.24  61.19
2497.40 9296.91  61.09
2627.40 9567.98  61.80
2638.76 9235.72  89.88
2635.25 9009.84 131.11
2624.60 9015.43 155.64
2614.32 9070.44 170.14
2599.25 9148.62 186.00
2570.98 9267.32 209.97
2524.27 9440.36 243.92
2436.56 9723.45 300.37
4964.86 9681.87 543.18
4894.27 9409.73 451.03
4852.44 9233.89 389.49
4826.93 9112.66 345.38
4810.62 9021.93 310.17
4799.85 8947.25 277.87
4793.59 8880.43 243.66
4793.55 8821.13 204.52
4803.51 8779.62 162.06
4826.05 8769.34 122.66
4861.27 8799.84  92.16
4906.87 8867.72  75.55
4953.62 8923.17  76.86
4987.83 8894.68  92.55
5002.66 8779.15 111.21
5002.59 8667.79 122.67
4997.31 8651.32 122.60
4997.24 8734.95 110.96
5012.12 8837.55  92.06
5046.56 8871.13  76.12
5093.76 8831.67  74.66
5139.97 8780.80  91.36
5175.89 8764.09 122.29
5199.16 8786.29 162.71
5209.75 8839.64 207.26
5209.88 8912.60 250.14
5202.70 8997.74 290.55
5188.90 9099.23 332.86
5165.56 9231.09 384.20
5125.48 9417.98 454.89
5054.41 9704.07 561.92
6923.50 8720.70  63.97
7261.34 9637.54 754.63
7222.83 9342.36 605.86
7203.78 9147.17 503.47
7196.41 9009.27 427.51
7197.02 8904.57 365.92
7204.56 8819.91 311.81
7219.63 8748.84 261.94
7243.43 8689.65 216.04
7276.75 8643.53 176.13
7319.06 8612.58 145.50
7367.82 8597.67 127.58
7417.60 8595.77 124.75
7460.51 8598.83 136.09
7489.49 8598.45 155.97
7502.45 8592.92 175.80
7503.25 8587.61 188.02
7499.47 8588.16 188.56
7499.81 8594.38 177.35
7511.91 8600.19 158.31
7539.74 8599.59 138.92
7581.29 8593.86 127.71
7629.47 8591.26 130.35
7676.20 8599.53 147.60
7715.79 8620.79 176.65
7745.53 8652.50 213.15
7764.95 8690.05 252.44
7775.27 8728.65 290.44
7778.70 8764.72 324.60
7777.51 8796.51 353.94
7773.50 8823.59 378.58
7767.92 8846.29 399.07
7761.58 8865.18 416.10
7754.97 8880.84 430.30
7748.39 8893.78 442.19
7742.01 8904.44 452.20
7735.91 8913.18 460.69
7730.13 8920.28 467.95
7724.68 8925.99 474.22
7719.53 8930.50 479.70
7714.64 8933.98 484.56
7709.95 8936.58 488.93
7705.39 8938.42 492.95
7700.88 8939.59 496.72
7696.34 8940.21 500.34
7691.66 8940.35 503.90
7686.77 8940.10 507.47
7681.52 8939.54 511.15
7675.79 8938.76 515.01
7669.47 8937.82 519.09
7662.37 8936.85 523.51
7654.30 8935.92 528.33
7645.07 8935.15 533.64
7634.38 8934.72 539.56
7621.85 8934.81 546.25
7607.11 8935.64 553.85
7589.43 8937.55 562.65
7568.19 8940.89 572.86
7542.03 8946.35 585.03
7509.09 8954.86 599.88
7466.44 8967.78 618.54
7408.15 8987.93 643.33
7303.64 9029.44 686.72
  0.00   0.00   0.00
  0.00   0.00   0.00
  0.00   0.00   0.00
  0.00   0.00   0.00
  0.00   0.00   0.00
  0.00   0.00   0.00
  0.00   0.00   0.00
  0.00   0.00   0.00
  0.00   0.00   0.00
3519.67 9279.74 357.09
3335.92 9177.54 329.92
3115.80 9090.47 297.74
2962.03 9035.05 274.82
2858.46 9001.91 259.03
2777.30 8979.11 246.36
2716.51 8964.91 236.61
2664.99 8954.70 228.13
2625.16 8949.00 221.37
2589.85 8944.99 215.22
2562.15 8943.65 210.23
2536.89 8942.90 205.55
2517.10 8943.86 201.74
2498.66 8944.83 198.10
2484.65 8947.13 195.20
2471.16 8949.01 192.34
2461.40 8951.97 190.17
2451.68 8954.26 187.95
2445.04 8957.45 186.34
2438.08 8959.77 184.62
2433.78 8962.93 183.47
2428.80 8964.98 182.13
2426.15 8967.88 181.35
2422.52 8969.45 180.28
2420.88 8971.85 179.74
2417.98 8972.63 178.81
2416.79 8974.23 178.38
2414.04 8973.83 177.41
2412.71 8974.21 176.88
2409.57 8972.07 175.63
2407.56 8970.56 174.74
2403.51 8965.79 172.83
2400.37 8961.37 171.18
2395.12 8952.86 168.10
2390.78 8944.49 165.16
2384.93 8932.36 160.48
2380.63 8921.71 156.14
2375.25 8912.70 148.85
2366.35 8949.22 128.89
2362.81 9244.68  89.68
2373.81 9651.14  62.18
2502.71 9609.64  61.19
2497.41 9268.90  61.11
2627.33 9480.47  61.81
2638.70 9189.28  89.86
2635.21 8996.22 131.05
2624.61 9006.12 155.50
2614.41 9058.38 169.87
2599.53 9131.84 185.50
2571.69 9243.38 209.07
2525.89 9405.97 242.28
2440.40 9671.41 297.18
4959.98 9627.07 534.56
4892.63 9376.82 447.03
4851.93 9213.17 387.43
4826.84 9099.80 344.25
4810.69 9014.73 309.55
4799.98 8944.50 277.53
4793.72 8881.17 243.51
4793.66 8823.84 204.47
4803.59 8781.37 162.05
4826.10 8766.10 122.68
4861.30 8786.95  92.19
4906.88 8841.53  75.58
4953.63 8887.71  76.88
4987.83 8864.27  92.56
5002.67 8767.77 111.21
5002.59 8675.43 122.67
4997.32 8664.28 122.59
4997.24 8737.90 110.96
5012.13 8825.81  92.09
5046.55 8852.98  76.17
5093.72 8817.98  74.71
5139.91 8775.43  91.41
5175.80 8764.70 122.32
5199.04 8789.29 162.69
5209.59 8841.75 207.14
5209.69 8911.41 249.86
5202.52 8991.88 289.99
5188.81 9087.56 331.81
5165.74 9211.86 382.32
5126.36 9387.94 451.45
5057.18 9656.49 555.18
6926.69 8751.62  67.07
7260.83 9593.72 742.33
7223.58 9319.76 600.26
7204.73 9136.67 500.68
7197.28 9006.84 426.07
7197.73 8908.16 365.20
7205.11 8828.28 311.50
7220.02 8761.06 261.86
7243.69 8704.77 216.07
7276.89 8660.46 176.21
7319.12 8630.14 145.58
7367.82 8614.80 127.63
7417.57 8611.99 124.77
7460.48 8614.70 136.09
7489.47 8615.19 155.94
7502.44 8611.32 175.76
7503.24 8607.20 187.98
7499.45 8607.41 188.52
7499.80 8611.86 177.29
7511.91 8615.64 158.25
7539.77 8614.19 138.86
7581.34 8609.25 127.68
7629.52 8608.29 130.36
7676.23 8617.93 147.64
7715.79 8639.69 176.71
7745.49 8670.96 213.22
7764.86 8707.37 252.50
7775.15 8744.43 290.48
7778.55 8778.87 324.62
7777.33 8809.12 353.94
7773.30 8834.85 378.57
7767.72 8856.39 399.06
7761.36 8874.31 416.09
7754.74 8889.15 430.30
7748.14 8901.41 442.20
7741.74 8911.51 452.23
7735.62 8919.77 460.74
7729.82 8926.48 468.02
7724.35 8931.85 474.31
7719.18 8936.09 479.81
7714.26 8939.35 484.69
7709.55 8941.75 489.09
7704.96 8943.43 493.13
7700.42 8944.47 496.93
7695.86 8944.96 500.57
7691.16 8945.00 504.16
7686.24 8944.65 507.76
7680.95 8944.00 511.46
7675.20 8943.13 515.34
7668.84 8942.11 519.46
7661.69 8941.03 523.91
7653.58 8940.01 528.76
7644.28 8939.14 534.11
7633.56 8938.57 540.06
7620.95 8938.52 546.79
7606.12 8939.17 554.44
7588.33 8940.88 563.29
7566.92 8944.00 573.59
7540.49 8949.22 585.89
7507.20 8957.40 600.89
7463.89 8970.00 619.83
7404.55 8989.78 645.07
7296.30 9031.30 690.00
  0.00   0.00   0.00
  0.00   0.00   0.00
  0.00   0.00   0.00
  0.00   0.00   0.00
  0.00   0.00   0.00
  0.00   0.00   0.00
  0.00   0.00   0.00
  0.00   0.00   0.00
  0.00   0.00   0.00
3483.16 9256.52 352.00
3332.05 9168.01 329.54
3115.69 9085.33 297.91
2963.17 9032.46 275.18
2860.22 9000.93 259.48
2779.01 8979.21 246.81
2718.14 8965.72 237.04
2666.66 8956.19 228.57
2626.72 8950.93 221.79
2591.26 8947.30 215.61
2563.44 8946.22 210.59
2538.04 8945.70 205.88
2518.18 8946.82 202.06
2499.63 8947.96 198.39
2485.52 8950.31 195.47
2471.95 8952.26 192.59
2462.11 8955.21 190.40
2452.30 8957.52 188.15
2445.58 8960.65 186.52
2438.55 8962.94 184.78
2434.19 8966.00 183.62
2429.15 8968.02 182.26
2426.45 8970.80 181.46
2422.78 8972.32 180.38
2421.11 8974.59 179.83
2418.17 8975.34 178.88
2416.95 8976.83 178.44
2414.17 8976.44 177.46
2412.83 8976.75 176.92
2409.66 8974.68 175.66
2407.64 8973.17 174.77
2403.56 8968.57 172.85
2400.41 8964.28 171.19
2395.14 8956.06 168.11
2390.80 8947.94 165.15
2384.94 8936.03 160.48
2380.63 8925.41 156.14
2375.26 8915.04 148.85
2366.36 8938.15 128.89
2362.84 9170.06  89.67
2373.85 9497.17  62.19
2502.71 9448.50  61.20
2497.41 9226.41  61.12
2495.64 9978.83  54.13
2597.96 9971.23  38.14
2627.25 9390.14  61.83
2638.63 9141.95  89.83
2635.18 8982.94 130.98
2624.61 8997.42 155.36
2614.50 9046.88 169.58
2599.83 9115.48 184.97
2572.44 9219.63 208.10
2527.65 9371.37 240.51
2444.65 9618.40 293.65
5044.33 9901.16 632.21
4954.51 9573.10 525.03
4890.82 9344.82 442.65
4851.38 9193.38 385.19
4826.76 9087.87 343.04
4810.79 9008.49 308.88
4800.12 8942.74 277.18
4793.86 8883.01 243.34
4793.77 8827.88 204.41
4803.67 8784.96 162.05
4826.15 8765.51 122.71
4861.33 8777.91  92.23
4906.89 8820.71  75.61
4953.63 8858.78  76.91
4987.83 8840.09  92.56
5002.67 8760.68 111.20
5002.60 8684.94 122.65
4997.32 8677.59 122.58
4997.25 8741.07 110.97
5012.13 8815.00  92.11
5046.54 8836.41  76.22
5093.69 8806.04  74.77
5139.85 8771.61  91.46
5175.71 8766.59 122.35
5198.90 8793.34 162.67
5209.41 8844.74 207.03
5209.47 8910.99 249.57
5202.31 8986.68 289.38
5188.69 9076.41 330.68
5165.93 9192.93 380.27
5127.35 9357.83 447.66
5060.37 9608.11 547.59
6927.99 8773.17  64.91
7316.54 9912.54 905.84
7260.12 9550.04 728.58
7224.37 9297.64 594.05
7205.78 9126.76 497.62
7198.24 9005.04 424.52
7198.53 8912.40 364.44
7205.72 8837.32 311.18
7220.46 8773.97 261.78
7243.97 8720.63 216.12
7277.04 8678.20 176.31
7319.17 8648.57 145.67
7367.81 8632.85 127.70
7417.53 8629.15 124.79
7460.44 8631.38 136.07
7489.45 8632.50 155.90
7502.42 8630.04 175.72
7503.22 8626.97 187.93
7499.44 8626.97 188.46
7499.78 8629.99 177.22
7511.92 8632.14 158.17
7539.80 8630.12 138.80
7581.40 8626.02 127.65
7629.58 8626.57 130.36
7676.26 8637.37 147.69
7715.78 8659.42 176.78
7745.43 8690.09 213.30
7764.75 8725.21 252.57
7774.99 8760.63 290.53
7778.36 8793.37 324.65
7777.11 8822.02 353.95
7773.07 8846.35 378.56
7767.46 8866.70 399.05
7761.09 8883.61 416.09
7754.45 8897.61 430.31
7747.84 8909.16 442.22
7741.41 8918.66 452.27
7735.27 8926.42 460.81
7729.46 8932.71 468.11
7723.96 8937.73 474.43
7718.77 8941.66 479.95
7713.82 8944.66 484.86
7709.08 8946.85 489.28
7704.47 8948.34 493.35
7699.90 8949.21 497.17
7695.31 8949.56 500.84
7690.58 8949.47 504.46
7685.63 8949.00 508.08
7680.32 8948.24 511.82
7674.54 8947.26 515.72
7668.13 8946.12 519.87
7660.94 8944.94 524.35
7652.80 8943.78 529.23
7643.45 8942.78 534.62
7632.66 8942.07 540.61
7619.97 8941.86 547.39
7605.03 8942.32 555.10
7587.10 8943.82 564.02
7565.54 8946.68 574.39
7538.85 8951.59 586.81
7505.23 8959.41 601.96
7461.31 8971.63 621.17
7400.93 8990.95 646.83
7289.04 9032.30 693.27
  0.00   0.00   0.00
  0.00   0.00   0.00
  0.00   0.00   0.00
  0.00   0.00   0.00
  0.00   0.00   0.00
  0.00   0.00   0.00
  0.00   0.00   0.00
  0.00   0.00   0.00
  0.00   0.00   0.00
3444.62 9233.22 346.63
3327.69 9157.74 329.10
3115.46 9079.39 298.08
2964.34 9029.13 275.56
2861.95 8999.17 259.95
2780.90 8978.60 247.30
2719.89 8965.85 237.51
2668.40 8956.99 229.04
2628.42 8952.22 222.25
2592.82 8949.00 216.04
2564.82 8948.17 210.99
2539.31 8947.93 206.26
2519.37 8949.24 202.41
2500.72 8950.56 198.72
2486.51 8952.98 195.77
2472.83 8955.03 192.87
2462.91 8958.01 190.65
2453.00 8960.35 188.38
2446.20 8963.45 186.73
2439.07 8965.74 184.96
2434.65 8968.74 183.78
2429.56 8970.74 182.40
2426.80 8973.44 181.59
2423.07 8974.93 180.49
2421.36 8977.12 179.92
2418.39 8977.86 178.96
2417.13 8979.29 178.50
2414.32 8978.94 177.51
2412.95 8979.23 176.97
2409.76 8977.27 175.69
2407.72 8975.83 174.79
2403.62 8971.45 172.86
2400.45 8967.35 171.19
2395.17 8959.48 168.10
2390.82 8951.67 165.15
2384.96 8940.10 160.47
2380.64 8929.61 156.13
2375.27 8918.20 148.84
2366.37 8929.81 128.88
2362.88 9106.24  89.67
2373.90 9364.33  62.21
2402.74 9960.17  38.82
2502.72 9316.20  61.21
2497.42 9175.89  61.13
2495.65 9838.93  54.18
2597.86 9795.57  38.21
2627.16 9300.91  61.85
2638.55 9095.77  89.81
2635.14 8970.67 130.91
2624.61 8989.66 155.20
2614.60 9036.26 169.27
2600.13 9099.92 184.41
2573.24 9196.52 207.07
2529.54 9337.12 238.59
2449.37 9565.15 289.77
2313.69 9930.04 369.07
2463.70 9985.45 308.23
4416.46 8693.90   4.29
4994.69 9901.70 580.70
5025.79 9803.38 606.65
4948.39 9520.41 514.52
4888.80 9313.98 437.86
4850.78 9174.71 382.77
4826.69 9077.03 341.75
4810.90 9003.32 308.18
4800.29 8942.08 276.81
4794.03 8886.02 243.17
4793.90 8833.33 204.36
4803.76 8790.44 162.06
4826.20 8767.62 122.74
4861.35 8772.71  92.27
4906.90 8805.14  75.65
4953.62 8836.09  76.93
4987.83 8821.75  92.57
5002.67 8757.52 111.19
5002.60 8696.18 122.64
4997.33 8691.50 122.57
4997.25 8745.05 110.96
5012.14 8805.97  92.13
5046.54 8822.29  76.26
5093.67 8796.55  74.83
5139.79 8769.87  91.51
5175.61 8770.14 122.38
5198.75 8798.71 162.66
5209.21 8848.82 206.91
5209.23 8911.52 249.26
5202.07 8982.35 288.73
5188.55 9066.03 329.47
5166.12 9174.63 378.04
5128.45 9328.07 443.47
5064.03 9559.46 539.08
4955.79 9920.18 682.82
5097.13 9956.34 562.22
6927.79 8788.44  58.65
7302.96 9991.60 879.82
7308.68 9823.73 867.91
7259.18 9506.86 713.25
7225.20 9276.21 587.19
7206.93 9117.62 494.30
7199.32 9004.01 422.86
7199.41 8917.39 363.65
7206.40 8847.10 310.86
7220.95 8787.65 261.72
7244.28 8737.29 216.19
7277.21 8696.80 176.43
7319.22 8667.96 145.78
7367.79 8651.93 127.76
7417.48 8647.31 124.80
7460.39 8648.93 136.03
7489.42 8650.43 155.84
7502.41 8649.10 175.65
7503.21 8646.95 187.86
7499.42 8646.83 188.38
7499.77 8648.72 177.13
7511.93 8649.64 158.07
7539.86 8647.31 138.71
7581.48 8644.11 127.60
7629.66 8646.07 130.38
7676.31 8657.86 147.75
7715.77 8680.00 176.88
7745.34 8709.88 213.41
7764.60 8743.58 252.66
7774.79 8777.26 290.60
7778.12 8808.22 324.69
7776.85 8835.24 353.97
7772.78 8858.13 378.57
7767.15 8877.24 399.06
7760.77 8893.11 416.11
7754.11 8906.23 430.33
7747.47 8917.04 442.27
7741.02 8925.91 452.34
7734.86 8933.14 460.90
7729.02 8938.98 468.23
7723.50 8943.61 474.57
7718.28 8947.22 480.12
7713.32 8949.94 485.05
7708.55 8951.88 489.51
7703.91 8953.15 493.60
7699.32 8953.84 497.46
7694.69 8954.02 501.15
7689.94 8953.78 504.80
7684.95 8953.17 508.46
7679.60 8952.28 512.23
7673.78 8951.16 516.16
7667.35 8949.90 520.34
7660.12 8948.57 524.85
7651.93 8947.27 529.76
7642.53 8946.11 535.18
7631.69 8945.22 541.21
7618.92 8944.81 548.04
7603.89 8945.06 555.80
7585.80 8946.34 564.81
7564.06 8948.92 575.26
7537.10 8953.53 587.81
7503.11 8960.97 603.13
7458.50 8972.79 622.63
7397.01 8991.62 648.76
7281.69 9032.53 696.62
  0.00   0.00   0.00
  0.00   0.00   0.00
  0.00   0.00   0.00
  0.00   0.00   0.00
  0.00   0.00   0.00
  0.00   0.00   0.00
  0.00   0.00   0.00
  0.00   0.00   0.00
  0.00   0.00   0.00
3403.82 9209.95 340.95
3322.42 9146.65 328.55
3114.82 9072.66 298.21
2965.48 9025.09 275.96
2863.76 8996.70 260.46
2782.80 8977.25 247.82
2721.85 8965.34 238.04
2670.35 8957.19 229.56
2630.21 8952.87 222.74
2594.45 8950.09 216.50
2566.35 8949.56 211.42
2540.74 8949.64 206.67
2520.69 8951.14 202.80
2501.93 8952.65 199.08
2487.60 8955.17 196.11
2473.81 8957.35 193.18
2463.78 8960.36 190.93
2453.77 8962.78 188.64
2446.88 8965.87 186.96
2439.67 8968.20 185.17
2435.18 8971.16 183.96
2430.01 8973.17 182.56
2427.19 8975.81 181.73
2423.41 8977.32 180.61
2421.65 8979.45 180.02
2418.62 8980.22 179.05
2417.33 8981.62 178.57
2414.49 8981.34 177.56
2413.09 8981.66 177.01
2409.87 8979.86 175.72
2407.81 8978.53 174.81
2403.69 8974.45 172.87
2400.50 8970.58 171.19
2395.21 8963.16 168.10
2390.84 8955.73 165.13
2384.97 8944.59 160.45
2380.66 8934.34 156.11
2375.28 8922.19 148.82
2366.39 8924.15 128.87
2362.91 9052.59  89.66
2373.95 9251.00  62.22
2402.80 9723.56  38.88
2504.45 9910.96  54.45
2502.72 9208.39  61.22
2497.42 9122.79  61.15
2495.66 9689.26  54.24
2597.76 9625.94  38.29
2627.07 9216.24  61.87
2638.48 9052.64  89.79
2635.09 8960.01 130.85
2624.60 8983.16 155.04
2614.69 9026.84 168.95
2600.45 9085.50 183.82
2574.08 9174.45 205.97
2531.58 9303.74 236.54
2454.58 9512.40 285.53
2328.20 9840.65 359.15
2530.52 9809.84 271.20
4429.81 8746.72  16.42
4951.38 9753.44 528.67
5005.68 9709.15 579.21
4941.58 9469.41 502.98
4886.56 9284.55 432.60
4850.14 9157.33 380.16
4826.63 9067.40 340.37
4811.05 8999.32 307.43
4800.49 8942.58 276.42
4794.22 8890.27 242.99
4794.05 8840.26 204.31
4803.86 8797.89 162.08
4826.26 8772.47 122.79
4861.38 8771.34  92.32
4906.90 8794.69  75.69
4953.61 8819.38  76.95
4987.82 8808.89  92.56
5002.67 8757.97 111.17
5002.61 8709.05 122.61
4997.33 8706.16 122.55
4997.26 8750.34 110.95
5012.15 8799.37  92.15
5046.55 8811.32  76.31
5093.65 8790.10  74.89
5139.74 8770.63  91.58
5175.51 8775.66 122.43
5198.59 8805.64 162.66
5208.99 8854.19 206.80
5208.96 8913.20 248.93
5201.80 8979.09 288.05
5188.39 9056.66 328.17
5166.32 9157.24 375.64
5129.69 9299.04 438.86
5068.23 9511.12 529.54
4969.22 9833.64 660.44
5168.04 9751.90 475.39
6926.56 8800.40  49.51
7275.97 9834.46 793.64
7299.82 9736.73 826.68
7257.97 9464.57 696.23
7226.06 9255.70 579.60
7208.19 9109.39 490.67
7200.51 9003.86 421.08
7200.40 8923.22 362.81
7207.17 8857.71 310.54
7221.50 8802.15 261.68
7244.63 8754.82 216.29
7277.39 8716.35 176.58
7319.27 8688.37 145.91
7367.75 8672.10 127.84
7417.40 8666.57 124.80
7460.32 8667.43 135.97
7489.38 8669.03 155.74
7502.39 8668.52 175.55
7503.19 8667.10 187.77
7499.39 8666.92 188.28
7499.76 8667.99 177.01
7511.95 8668.05 157.94
7539.92 8665.71 138.60
7581.58 8663.50 127.55
7629.76 8666.78 130.39
7676.36 8679.38 147.83
7715.74 8701.43 177.00
7745.23 8730.36 213.54
7764.41 8762.49 252.78
7774.54 8794.33 290.69
7777.82 8823.45 324.75
7776.51 8848.76 354.01
7772.42 8870.17 378.60
7766.77 8888.01 399.09
7760.36 8902.80 416.14
7753.68 8915.01 430.38
7747.03 8925.05 442.34
7740.56 8933.26 452.43
7734.37 8939.93 461.02
7728.51 8945.28 468.38
7722.97 8949.51 474.75
7717.72 8952.76 480.33
7712.73 8955.17 485.29
7707.93 8956.84 489.77
7703.27 8957.88 493.90
7698.65 8958.36 497.78
7694.00 8958.35 501.51
7689.21 8957.93 505.19
7684.19 8957.16 508.88
7678.81 8956.11 512.67
7672.96 8954.84 516.64
7666.49 8953.42 520.85
7659.22 8951.94 525.40
7650.98 8950.47 530.35
7641.52 8949.14 535.81
7630.62 8948.06 541.88
7617.76 8947.45 548.77
7602.65 8947.46 556.58
7584.43 8948.47 565.65
7562.50 8950.76 576.20
7535.31 8955.00 588.86
7500.99 8962.02 604.33
7455.70 8973.39 624.12
7393.06 8991.70 650.73
7274.28 9032.05 700.03
  0.00   0.00   0.00
  0.00   0.00   0.00
  0.00   0.00   0.00
  0.00   0.00   0.00
  0.00   0.00   0.00
  0.00   0.00   0.00
  0.00   0.00   0.00
  0.00   0.00   0.00
  0.00   0.00   0.00
3361.51 9187.23 335.06
3316.47 9134.99 327.92
3114.25 9065.40 298.37
2966.68 9020.43 276.39
2865.38 8993.53 260.94
2784.73 8975.30 248.35
2723.91 8964.21 238.59
2672.33 8956.75 230.10
2632.09 8952.95 223.26
2596.26 8950.64 217.00
2568.05 8950.45 211.90
2542.28 8950.83 207.12
2522.08 8952.53 203.22
2503.20 8954.26 199.47
2488.78 8956.92 196.48
2474.87 8959.25 193.51
2464.72 8962.31 191.24
2454.60 8964.82 188.91
2447.62 8967.93 187.21
2440.32 8970.31 185.39
2435.75 8973.25 184.16
2430.50 8975.31 182.74
2427.63 8977.91 181.88
2423.77 8979.47 180.74
2421.96 8981.57 180.14
2418.89 8982.41 179.14
2417.56 8983.81 178.65
2414.67 8983.66 177.62
2413.24 8984.04 177.06
2409.99 8982.45 175.75
2407.90 8981.29 174.83
2403.76 8977.55 172.88
2400.56 8974.00 171.19
2395.24 8967.09 168.08
2390.87 8960.12 165.12
2384.99 8949.53 160.43
2380.67 8939.62 156.09
2375.29 8927.03 148.81
2366.41 8921.05 128.86
2362.95 9008.47  89.66
2374.00 9155.65  62.25
2402.86 9522.25  38.94
2450.09 9985.72  28.29
2504.45 9669.77  54.49
2502.72 9121.16  61.23
2497.43 9070.94  61.17
2495.67 9540.10  54.30
2509.60 9985.97  39.01
2550.09 9877.17  27.78
2597.66 9467.71  38.38
2626.98 9138.74  61.90
2638.40 9013.99  89.78
2635.04 8951.43 130.78
2624.59 8978.16 154.88
2614.78 9018.85 168.62
2600.77 9072.51 183.20
2574.96 9153.81 204.82
2533.78 9271.74 234.33
2460.33 9460.89 280.89
2344.47 9752.18 348.15
2598.57 9645.69 233.71
4439.62 8788.83  24.48
4909.03 9621.20 477.99
4984.18 9619.71 550.13
4934.02 9420.57 490.36
4884.08 9256.74 426.85
4849.45 9141.37 377.32
4826.59 9059.09 338.89
4811.22 8996.57 306.64
4800.73 8944.31 276.01
4794.44 8895.82 242.81
4794.23 8848.71 204.26
4803.98 8807.35 162.11
4826.32 8780.11 122.84
4861.39 8773.79  92.38
4906.89 8789.27  75.73
4953.59 8808.41  76.96
4987.81 8801.17  92.55
5002.68 8761.74 111.13
5002.62 8723.41 122.57
4997.33 8721.70 122.51
4997.27 8757.26 110.93
5012.17 8795.72  92.15
5046.56 8804.02  76.35
5093.64 8787.16  74.96
5139.69 8774.28  91.66
5175.40 8783.44 122.49
5198.41 8814.34 162.66
5208.73 8861.00 206.68
