  X0   Y0   Z0
7487.98 2120.42 316.72
7494.91 2189.10 318.41
7500.07 2239.43 321.76
7502.65 2229.96 325.44
7503.06 2145.13 328.15
7502.45 2007.67 329.19
7502.14 1870.44 328.52
7503.23 1797.40 326.71
7506.06 1822.21 324.88
7509.82 1912.91 324.07
7512.99 2008.25 324.46
7514.65 2077.66 325.30
7514.73 2122.07 325.61
7513.57 2148.54 324.50
7511.84 2164.89 321.37
7510.35 2179.37 316.33
7509.65 2196.64 310.13
7509.87 2217.22 303.69
7510.82 2239.74 297.65
7512.25 2262.81 292.31
7513.92 2285.57 287.77
7515.68 2307.68 283.98
7517.40 2329.10 280.86
7519.02 2349.84 278.34
7520.47 2369.99 276.33
7521.72 2389.65 274.78
7522.73 2408.90 273.66
7523.45 2427.78 272.93
7523.85 2446.35 272.58
7523.87 2464.60 272.60
7523.47 2482.57 273.00
7522.59 2500.26 273.77
7521.18 2517.63 274.91
7519.16 2534.69 276.45
7516.48 2551.47 278.39
7513.06 2567.88 280.75
7508.81 2583.91 283.54
7503.68 2599.58 286.77
7497.57 2614.83 290.47
7490.35 2629.61 294.67
7481.90 2643.85 299.41
7472.05 2657.46 304.75
7460.68 2670.41 310.72
7447.51 2682.56 317.40
7432.45 2693.90 324.82
7415.17 2704.25 333.09
7395.49 2713.55 342.25
7372.59 2721.34 352.63
7347.46 2728.58 363.73
7318.62 2734.23 376.16
7298.71 2747.99 384.54
  0.00   0.00   0.00
  0.00   0.00   0.00
  0.00   0.00   0.00
  0.00   0.00   0.00
  0.00   0.00   0.00
  0.00   0.00   0.00
  0.00   0.00   0.00
  0.00   0.00   0.00
  0.00   0.00   0.00
3479.67 2722.46 243.48
3156.25 2866.54 195.54
2987.15 2926.35 170.41
2872.57 2959.50 153.10
2792.67 2975.71 140.81
2728.95 2984.36 130.82
2679.24 2986.55 122.86
2636.71 2985.72 115.90
2602.14 2981.36 110.11
2572.03 2975.30 104.94
2547.37 2966.72 100.60
2525.47 2957.30  96.64
2507.78 2945.88  93.35
2491.92 2934.10  90.31
2479.34 2920.82  87.82
2468.16 2907.28  85.54
2459.62 2892.34  83.73
2452.07 2877.31  82.08
2446.74 2861.08  80.87
2442.06 2844.91  79.76
2439.23 2827.64  79.05
2436.72 2810.61  78.40
2435.74 2792.57  78.12
2434.80 2774.95  77.85
2435.09 2756.41  77.92
2435.14 2738.56  77.93
2436.16 2720.03  78.25
2436.69 2702.48  78.43
2437.94 2684.49  78.89
2438.46 2667.76  79.10
2439.52 2651.04  79.55
2439.71 2635.44  79.65
2440.41 2620.81  80.01
2440.40 2605.91  80.02
2441.46 2597.46  80.72
2443.21 2603.10  82.10
2448.74 2762.69  87.51
2459.18 3720.04 101.44
2470.30 7832.73 126.26
2540.17 2128.68 112.85
2543.25 2556.47 109.32
2533.17 2524.44 120.40
2503.31 2360.36 146.16
2445.44 2146.07 188.75
2331.46 1803.10 263.06
2114.38 1271.58 392.67
1682.21 395.95 635.40
1956.64 2015.53 500.63
5299.60 283.76 679.43
5131.21 1161.04 467.36
5047.85 1613.81 353.32
5006.72 1860.86 289.83
4987.04 2000.00 253.84
4978.86 2077.55 234.64
4976.75 2121.35 226.76
4977.05 2155.50 226.51
4977.24 2197.62 229.81
4976.61 2229.19 232.50
4976.06 2204.47 233.18
4976.86 2052.97 232.20
4981.49 1485.03 230.05
4990.04 413.94 229.66
5000.62  48.85 236.28
5000.31 1371.78 238.43
4998.94 2926.06 238.19
4998.80 4027.10 235.56
5002.28 4200.40 231.38
5010.44 3509.04 228.14
5019.95 2689.43 228.42
5025.80 2290.53 230.92
5027.96 2185.98 232.93
5028.88 2162.74 234.48
5029.50 2167.00 236.14
5029.97 2166.78 240.41
5028.45 2134.69 252.80
5020.59 2054.86 279.51
4999.66 1909.15 327.94
4954.50 1663.58 410.32
4863.86 1249.22 550.67
4682.47 517.90 800.75
7514.49 781.01 811.38
7468.39 1329.72 607.79
7450.34 1644.38 491.05
7445.81 1833.26 421.40
7447.70 1949.40 379.34
7452.26 2021.74 354.09
7457.56 2068.25 339.00
7462.91 2100.75 329.71
7468.36 2127.78 323.63
7474.21 2156.38 319.57
7480.77 2194.70 317.19
7487.98 2250.68 316.72
7494.91 2319.66 318.41
7500.07 2369.89 321.76
7502.65 2359.52 325.44
7503.06 2273.40 328.15
7502.45 2134.90 329.19
7502.14 1997.09 328.52
7503.23 1923.85 326.71
7506.06 1948.52 324.87
7509.82 2038.92 324.07
7512.99 2133.85 324.46
7514.66 2202.83 325.30
7514.73 2246.79 325.61
7513.57 2272.81 324.50
7511.85 2288.64 321.37
7510.36 2302.51 316.33
7509.66 2319.08 310.15
7509.88 2338.93 303.71
7510.82 2360.72 297.68
7512.25 2383.11 292.35
7513.92 2405.23 287.82
7515.67 2426.77 284.04
7517.38 2447.63 280.94
7518.99 2467.85 278.43
7520.43 2487.50 276.44
7521.66 2506.68 274.91
7522.65 2525.47 273.81
7523.34 2543.91 273.11
7523.71 2562.04 272.79
7523.70 2579.86 272.84
7523.26 2597.42 273.27
7522.33 2614.69 274.07
7520.87 2631.65 275.26
7518.80 2648.32 276.83
7516.05 2664.69 278.81
7512.56 2680.71 281.21
7508.24 2696.38 284.04
7503.03 2711.69 287.31
7496.84 2726.56 291.05
7489.54 2740.98 295.30
7480.98 2754.88 300.10
7471.01 2768.16 305.49
7459.52 2780.81 311.51
7446.24 2792.70 318.25
7431.07 2803.82 325.72
7413.65 2813.92 334.04
7393.82 2823.01 343.27
7370.89 2830.80 353.65
7345.63 2837.99 364.80
7316.70 2843.63 377.26
7297.08 2857.33 385.51
  0.00   0.00   0.00
  0.00   0.00   0.00
  0.00   0.00   0.00
  0.00   0.00   0.00
  0.00   0.00   0.00
  0.00   0.00   0.00
  0.00   0.00   0.00
  0.00   0.00   0.00
  0.00   0.00   0.00
3484.03 2845.40 244.28
3160.39 2982.22 196.29
2990.60 3039.23 171.04
2875.52 3070.84 153.66
2795.35 3086.23 141.33
2731.31 3094.45 131.29
2681.44 3096.46 123.30
2638.70 3095.66 116.31
2603.90 3091.47 110.49
2573.61 3085.70 105.29
2548.79 3077.52 100.92
2526.75 3068.48  96.94
2508.94 3057.54  93.63
2492.98 3046.19  90.58
2480.28 3033.45  88.06
2468.98 3020.52  85.76
2460.33 3006.26  83.93
2452.70 2991.86  82.27
2447.30 2976.30  81.04
2442.55 2960.79  79.91
2439.65 2944.20  79.19
2437.08 2927.90  78.53
2436.04 2910.61  78.24
2435.05 2893.74  77.95
2435.30 2876.01  78.01
2435.32 2858.89  78.01
2436.31 2841.12  78.32
2436.80 2824.28  78.49
2438.03 2807.05  78.94
2438.53 2791.02  79.14
2439.57 2775.03  79.59
2439.74 2760.07  79.67
2440.43 2746.06  80.03
2440.42 2731.77  80.03
2441.47 2723.83  80.73
2443.21 2729.71  82.11
2448.74 2886.75  87.51
2459.18 3826.19 101.43
2470.30 7861.72 126.25
2532.01  55.66 130.89
2540.17 2272.51 112.85
2543.25 2692.86 109.31
2533.17 2663.20 120.39
2503.32 2506.02 146.14
2445.46 2301.75 188.72
2331.52 1975.47 263.01
2114.52 1471.96 392.57
1682.41 645.77 635.25
1954.28 2206.69 501.86
5299.75 507.56 679.71
5131.28 1347.16 467.52
5047.88 1780.15 353.40
5006.73 2016.24 289.89
4987.04 2149.09 253.87
4978.86 2223.22 234.66
4976.75 2265.24 226.78
4977.05 2298.51 226.52
4977.23 2339.92 229.81
4976.60 2370.97 232.51
4976.06 2346.70 233.18
4976.85 2197.83 232.20
4981.49 1639.48 230.04
4990.04 585.58 229.66
5000.62 224.87 236.28
5000.31 1527.41 238.43
4998.94 3059.60 238.19
4998.80 4146.48 235.56
5002.28 4318.17 231.38
5010.44 3635.49 228.14
5019.95 2825.71 228.42
5025.80 2431.47 230.92
5027.96 2328.27 232.93
5028.88 2305.45 234.48
5029.50 2309.84 236.14
5029.97 2310.05 240.41
5028.44 2279.47 252.79
5020.59 2203.17 279.50
4999.66 2063.97 327.92
4954.51 1829.33 410.28
4863.88 1433.50 550.60
4682.52 734.96 800.62
7619.51   4.74 1185.97
7514.49 976.81 811.45
7468.39 1502.25 607.83
7450.33 1803.50 491.07
7445.81 1984.30 421.41
7447.70 2095.43 379.34
7452.25 2164.61 354.10
7457.56 2209.04 339.00
7462.91 2240.16 329.71
7468.36 2266.19 323.63
7474.21 2294.18 319.57
7480.77 2332.15 317.19
7487.98 2387.99 316.72
7494.91 2456.67 318.41
7500.07 2506.33 321.76
7502.65 2495.39 325.44
7503.06 2408.79 328.15
7502.45 2270.32 329.19
7502.14 2132.95 328.52
7503.22 2060.09 326.71
7506.06 2084.49 324.87
7509.82 2173.96 324.06
7513.00 2267.80 324.46
7514.66 2335.88 325.30
7514.73 2379.13 325.61
7513.58 2404.53 324.50
7511.86 2419.80 321.38
7510.37 2433.00 316.34
7509.67 2448.80 310.16
7509.88 2467.85 303.73
7510.83 2488.82 297.70
7512.25 2510.41 292.39
7513.92 2531.78 287.86
7515.66 2552.61 284.10
7517.37 2572.81 281.02
7518.96 2592.40 278.52
7520.39 2611.44 276.55
7521.60 2630.05 275.05
7522.57 2648.29 273.97
7523.24 2666.18 273.29
7523.57 2683.78 273.00
7523.53 2701.07 273.08
7523.05 2718.11 273.54
7522.08 2734.88 274.37
7520.56 2751.33 275.59
7518.44 2767.53 277.20
7515.64 2783.40 279.22
7512.09 2798.97 281.65
7507.70 2814.17 284.52
7502.41 2829.02 287.84
7496.13 2843.44 291.63
7488.73 2857.42 295.92
7480.07 2870.92 300.77
7470.00 2883.83 306.22
7458.41 2896.14 312.28
7445.03 2907.67 319.06
7429.74 2918.51 326.58
7412.18 2928.32 334.97
7392.24 2937.23 344.23
7369.22 2944.87 354.65
7343.86 2951.94 365.84
7314.87 2957.63 378.32
7295.50 2971.15 386.45
  0.00   0.00   0.00
  0.00   0.00   0.00
  0.00   0.00   0.00
  0.00   0.00   0.00
  0.00   0.00   0.00
  0.00   0.00   0.00
  0.00   0.00   0.00
  0.00   0.00   0.00
  0.00   0.00   0.00
3488.35 2972.79 245.07
3164.74 3101.83 197.06
2994.14 3155.89 171.69
2878.35 3185.95 154.20
2797.90 3200.52 141.82
2733.62 3208.29 131.75
2683.46 3210.16 123.72
2640.62 3209.29 116.71
2605.63 3205.26 110.86
2575.14 3199.76 105.63
2550.15 3192.01 101.23
2527.97 3183.46  97.23
2510.03 3173.09  93.89
2493.96 3162.27  90.82
2481.17 3150.03  88.30
2469.77 3137.70  85.98
2461.04 3124.15  84.13
2453.31 3110.44  82.45
2447.83 3095.64  81.20
2443.01 3080.86  80.06
2440.06 3065.05  79.33
2437.43 3049.47  78.65
2436.34 3033.03  78.35
2435.30 3016.94  78.05
2435.51 3000.09  78.10
2435.49 2983.81  78.09
2436.45 2966.88  78.39
2436.91 2950.84  78.55
2438.12 2934.43  78.99
2438.59 2919.12  79.18
2439.62 2903.92  79.62
2439.78 2889.67  79.70
2440.46 2876.32  80.05
2440.43 2862.68  80.05
2441.48 2855.26  80.74
2443.22 2861.30  82.12
2448.74 3014.63  87.52
2459.18 3929.85 101.43
2470.31 7858.82 126.24
2532.01 261.24 130.88
2540.17 2423.36 112.84
2543.25 2833.30 109.31
2533.18 2805.88 120.38
2503.33 2656.06 146.12
2445.49 2462.59 188.69
2331.58 2154.02 262.95
2114.64 1679.48 392.47
1682.60 904.09 635.11
1952.06 2398.77 503.02
5299.90 744.91 679.97
5131.35 1543.70 467.66
5047.91 1955.24 353.49
5006.74 2179.55 289.94
4987.04 2305.74 253.91
4978.86 2376.20 234.68
4976.74 2416.30 226.79
4977.05 2448.50 226.52
4977.23 2488.86 229.82
4976.60 2519.17 232.51
4976.06 2495.54 233.18
4976.85 2350.35 232.19
4981.49 1805.70 230.04
4990.04 776.65 229.66
4997.54  55.38 232.55
5000.62 423.08 236.28
5000.31 1695.51 238.43
4998.94 3194.11 238.19
4998.80 4258.36 235.56
5002.28 4426.46 231.38
5010.44 3758.29 228.14
5019.95 2964.89 228.42
5025.80 2578.29 230.92
5027.96 2477.24 232.93
5028.88 2454.99 234.48
5029.49 2459.44 236.13
5029.96 2459.98 240.40
5028.44 2431.05 252.79
5020.58 2358.55 279.48
4999.66 2226.28 327.90
4954.52 2003.37 410.25
4863.91 1627.48 550.53
4682.58 964.15 800.50
7619.52 259.98 1186.10
7514.50 1185.18 811.52
7468.39 1685.36 607.87
7450.33 1972.08 491.08
7445.80 2144.15 421.42
7447.69 2249.85 379.35
7452.25 2315.67 354.10
7457.56 2357.87 339.00
7462.91 2387.46 329.71
7468.36 2412.40 323.63
7474.21 2439.62 319.57
7480.77 2476.88 317.19
7487.98 2532.11 316.72
7494.91 2600.07 318.41
7500.07 2648.94 321.76
7502.65 2637.41 325.44
7503.06 2551.11 328.15
7502.45 2413.91 329.19
7502.14 2278.18 328.52
7503.22 2206.32 326.71
7506.06 2230.22 324.87
7509.82 2318.10 324.06
7513.00 2410.16 324.45
7514.66 2476.82 325.30
7514.74 2519.05 325.61
7513.58 2543.69 324.50
7511.86 2558.26 321.38
7510.38 2570.73 316.35
7509.68 2585.72 310.17
7509.89 2603.86 303.75
7510.84 2623.92 297.73
7512.26 2644.62 292.42
7513.92 2665.12 287.91
7515.66 2685.13 284.16
7517.35 2704.56 281.09
7518.94 2723.41 278.61
7520.35 2741.76 276.66
7521.55 2759.69 275.17
7522.49 2777.27 274.12
7523.14 2794.52 273.46
7523.44 2811.47 273.20
7523.36 2828.14 273.31
7522.85 2844.58 273.80
7521.84 2860.73 274.66
7520.28 2876.62 275.91
7518.10 2892.25 277.56
7515.25 2907.56 279.61
7511.63 2922.57 282.08
7507.17 2937.21 285.00
7501.80 2951.51 288.36
7495.43 2965.41 292.19
7487.95 2978.91 296.53
7479.20 2991.92 301.42
7469.04 3004.43 306.91
7457.35 3016.29 313.02
7443.86 3027.44 319.85
7428.46 3037.91 327.41
7410.75 3047.35 335.87
7390.70 3055.99 345.18
7367.55 3063.42 355.64
7342.06 3070.32 366.88
7312.99 3075.89 379.39
7293.94 3089.15 387.38
  0.00   0.00   0.00
  0.00   0.00   0.00
  0.00   0.00   0.00
  0.00   0.00   0.00
  0.00   0.00   0.00
  0.00   0.00   0.00
  0.00   0.00   0.00
  0.00   0.00   0.00
  0.00   0.00   0.00
3492.67 3104.34 245.85
3168.88 3225.25 197.80
2997.54 3276.13 172.31
2881.29 3304.47 154.75
2800.38 3318.17 142.30
2735.83 3325.55 132.19
2685.43 3327.39 124.12
2642.36 3326.56 117.08
2607.23 3322.61 111.20
2576.61 3317.32 105.96
2551.48 3309.94 101.54
2529.14 3301.88  97.51
2511.10 3292.10  94.15
2494.91 3281.91  91.06
2482.00 3270.40  88.52
2470.52 3258.65  86.18
2461.70 3245.82  84.32
2453.90 3232.86  82.62
2448.34 3218.86  81.36
2443.45 3204.90  80.20
2440.44 3189.98  79.46
2437.76 3175.22  78.77
2436.62 3159.67  78.45
2435.54 3144.44  78.14
2435.71 3128.49  78.18
2435.65 3113.12  78.16
2436.58 3097.13  78.45
2437.02 3081.95  78.60
2438.20 3066.45  79.03
2438.65 3051.98  79.22
2439.67 3037.61  79.65
2439.81 3024.12  79.73
2440.48 3011.51  80.07
2440.45 2998.56  80.06
2441.49 2991.65  80.75
2443.22 2997.76  82.12
2448.74 3146.13  87.52
2459.18 4029.51 101.43
2470.31 7823.04 126.24
2532.01 490.81 130.88
2540.17 2581.16 112.84
2543.25 2977.53 109.30
2533.18 2952.40 120.37
2503.34 2810.40 146.11
2445.52 2628.13 188.66
2331.64 2338.48 262.90
2114.76 1894.21 392.38
1682.78 1170.87 634.97
1949.97 2592.75 504.11
5457.74  58.79 876.23
5300.03 995.72 680.22
5131.42 1750.66 467.80
5047.94 2139.17 353.56
5006.76 2350.77 289.98
4987.05 2469.86 253.94
4978.86 2536.40 234.70
4976.74 2574.42 226.80
4977.04 2605.32 226.53
4977.23 2644.38 229.82
4976.60 2673.77 232.51
4976.06 2650.93 233.18
4976.85 2510.47 232.19
4981.49 1983.89 230.04
4990.04 988.11 229.66
4997.54 288.93 232.55
5000.62 643.67 236.28
5000.32 1875.92 238.43
4998.94 3329.08 238.19
4998.80 4361.93 235.56
5002.28 4525.83 231.38
5010.44 3876.94 228.14
5019.95 3106.48 228.42
5025.80 2730.93 230.92
5027.96 2632.82 232.93
5028.87 2611.27 234.48
5029.49 2615.71 236.13
5029.96 2616.57 240.40
5028.44 2589.39 252.78
5020.58 2520.91 279.47
4999.66 2396.00 327.88
4954.53 2185.66 410.21
4863.93 1830.97 550.47
4682.63 1205.27 800.38
4322.95  73.51 1259.55
7619.53 531.48 1186.22
7514.50 1406.25 811.58
7468.39 1879.12 607.90
7450.33 2150.16 491.10
7445.80 2312.80 421.43
7447.69 2412.69 379.35
7452.25 2474.80 354.10
7457.56 2514.66 339.00
7462.91 2542.64 329.71
7468.36 2566.41 323.63
7474.21 2592.66 319.57
7480.77 2628.93 317.19
7487.98 2683.00 316.72
7494.91 2749.68 318.41
7500.07 2797.36 321.76
7502.65 2785.46 325.44
7503.06 2700.30 328.15
7502.45 2565.61 329.19
7502.14 2432.75 328.52
7503.22 2362.57 326.71
7506.06 2385.78 324.87
7509.82 2471.28 324.06
7513.00 2560.84 324.45
7514.67 2625.55 325.29
7514.74 2666.44 325.61
7513.59 2690.14 324.51
7511.87 2703.97 321.38
7510.38 2715.70 316.36
7509.69 2729.82 310.18
7509.90 2746.98 303.77
7510.84 2766.00 297.75
7512.26 2785.69 292.46
7513.92 2805.23 287.96
7515.65 2824.33 284.22
7517.34 2842.88 281.16
7518.91 2860.89 278.70
7520.31 2878.43 276.76
7521.49 2895.58 275.30
7522.42 2912.39 274.26
7523.04 2928.89 273.63
7523.32 2945.13 273.39
7523.21 2961.10 273.53
7522.65 2976.84 274.04
7521.61 2992.30 274.94
7520.00 3007.49 276.22
7517.77 3022.44 277.90
7514.86 3037.09 279.99
7511.19 3051.45 282.50
7506.65 3065.45 285.45
7501.22 3079.13 288.85
7494.77 3092.43 292.73
7487.20 3105.35 297.11
7478.37 3117.80 302.04
7468.13 3129.77 307.57
7456.33 3141.12 313.72
7442.74 3151.82 320.60
7427.21 3161.81 328.22
7409.38 3170.88 336.73
7389.20 3179.21 346.09
7365.91 3186.37 356.61
7340.36 3193.01 367.87
7311.28 3198.45 380.37
7292.53 3211.35 388.23
  0.00   0.00   0.00
  0.00   0.00   0.00
  0.00   0.00   0.00
  0.00   0.00   0.00
  0.00   0.00   0.00
  0.00   0.00   0.00
  0.00   0.00   0.00
  0.00   0.00   0.00
  0.00   0.00   0.00
3496.05 3239.90 246.48
3172.34 3352.37 198.43
3000.57 3399.77 172.87
2883.95 3426.28 155.25
2802.84 3439.10 142.78
2738.00 3445.99 132.61
2687.32 3447.65 124.51
2644.06 3446.89 117.44
2608.78 3443.22 111.53
2577.95 3438.29 106.26
2552.70 3431.32 101.82
2530.26 3423.72  97.77
2512.08 3414.63  94.40
2495.82 3404.99  91.29
2482.81 3394.19  88.73
2471.23 3383.19  86.37
2462.33 3371.16  84.50
2454.45 3359.01  82.78
2448.83 3345.89  81.51
2443.87 3332.78  80.34
2440.80 3318.81  79.58
2438.08 3305.00  78.88
2436.89 3290.38  78.55
2435.76 3276.12  78.23
2435.90 3261.15  78.26
2435.81 3246.74  78.23
2436.70 3231.74  78.51
2437.12 3217.47  78.65
2438.28 3202.93  79.08
2438.71 3189.34  79.25
2439.71 3175.86  79.68
2439.84 3163.18  79.75
2440.50 3151.36  80.09
2440.46 3139.16  80.08
2441.50 3132.79  80.76
2443.23 3138.88  82.13
2448.74 3281.03  87.52
2459.18 4125.48 101.43
2470.31 7753.53 126.23
2532.00 743.39 130.87
2540.17 2745.79 112.84
2543.25 3125.28 109.30
2533.19 3102.39 120.36
2503.36 2968.89 146.09
2445.54 2798.39 188.64
2331.69 2528.51 262.86
2114.87 2115.89 392.29
1682.94 1445.99 634.84
1948.03 2787.95 505.13
5457.52 378.36 876.10
5300.16 1259.63 680.46
5131.48 1967.62 467.93
5047.96 2331.67 353.64
5006.77 2529.80 290.03
4987.05 2641.26 253.97
4978.86 2703.55 234.72
4976.74 2739.33 226.81
4977.04 2768.76 226.54
4977.22 2806.23 229.82
4976.59 2834.40 232.51
4976.05 2812.54 233.18
4976.85 2677.99 232.19
4981.48 2173.43 230.04
4990.04 1218.60 229.65
4997.54 547.65 232.55
5000.63 886.58 236.28
5000.32 2068.87 238.43
4998.94 3464.54 238.19
4998.80 4457.32 235.56
5002.28 4615.27 231.38
5010.44 3991.35 228.14
5019.95 3250.40 228.43
5025.79 2889.14 230.92
5027.96 2794.81 232.93
5028.87 2774.16 234.47
5029.49 2778.54 236.13
5029.96 2779.62 240.40
5028.44 2754.22 252.77
5020.58 2690.04 279.46
4999.66 2572.97 327.86
4954.53 2375.97 410.18
4863.94 2043.85 550.41
4682.68 1458.14 800.28
4323.04 398.72 1259.36
4265.88 301.97 1354.84
7619.54 818.94 1186.33
7514.50 1639.80 811.63
7468.38 2083.36 607.92
7450.33 2337.52 491.11
7445.80 2490.06 421.43
7447.69 2583.73 379.36
7452.25 2641.91 354.10
7457.56 2679.23 339.00
7462.91 2705.53 329.71
7468.36 2728.04 323.63
7474.21 2753.06 319.57
7480.77 2788.07 317.19
7487.98 2840.51 316.72
7494.91 2905.16 318.41
7500.07 2951.04 321.76
7502.65 2939.08 325.44
7503.06 2856.09 328.15
7502.45 2725.25 329.19
7502.14 2596.47 328.51
7503.22 2528.55 326.71
7506.06 2550.91 324.87
7509.82 2633.41 324.06
7513.00 2719.70 324.45
7514.67 2781.92 325.29
7514.75 2821.15 325.61
7513.59 2843.75 324.51
7511.87 2856.80 321.39
7510.39 2867.73 316.36
7509.69 2880.95 310.19
7509.91 2897.05 303.78
7510.85 2914.97 297.78
7512.27 2933.56 292.49
7513.92 2952.05 288.00
7515.64 2970.12 284.27
7517.33 2987.69 281.23
7518.89 3004.75 278.78
7520.27 3021.37 276.86
7521.44 3037.65 275.42
7522.34 3053.58 274.40
7522.95 3069.24 273.79
7523.20 3084.62 273.57
7523.06 3099.77 273.74
7522.47 3114.68 274.28
7521.39 3129.33 275.20
7519.74 3143.74 276.52
7517.46 3157.92 278.23
7514.49 3171.80 280.35
7510.76 3185.40 282.89
7506.17 3198.68 285.89
7500.67 3211.68 289.32
7494.15 3224.32 293.23
7486.50 3236.55 297.66
7477.58 3248.38 302.63
7467.26 3259.73 308.19
7455.34 3270.49 314.41
7441.64 3280.62 321.33
7426.03 3290.12 328.99
7408.10 3298.77 337.54
7387.84 3306.71 346.93
7364.44 3313.51 357.50
7338.75 3319.81 368.81
7309.63 3325.12 381.33
7291.14 3337.54 389.06
  0.00   0.00   0.00
  0.00   0.00   0.00
  0.00   0.00   0.00
  0.00   0.00   0.00
  0.00   0.00   0.00
  0.00   0.00   0.00
  0.00   0.00   0.00
  0.00   0.00   0.00
  0.00   0.00   0.00
3499.51 3379.19 247.12
3175.68 3483.01 199.04
3003.47 3526.84 173.41
2886.40 3551.42 155.72
2805.08 3563.22 143.21
2739.99 3569.66 133.01
2689.01 3571.19 124.85
2645.63 3570.42 117.77
2610.22 3566.97 111.85
2579.25 3562.36 106.55
2553.87 3555.92 102.09
2531.33 3548.82  98.02
2513.02 3540.45  94.63
2496.64 3531.53  91.50
2483.56 3521.45  88.92
2471.88 3511.21  86.55
2462.92 3500.02  84.67
2454.97 3488.73  82.94
2449.29 3476.55  81.65
2444.27 3464.36  80.47
2441.15 3451.37  79.70
2438.37 3438.54  78.99
2437.14 3424.94  78.65
2435.98 3411.69  78.32
2436.07 3397.79  78.33
2435.95 3384.36  78.29
2436.82 3370.43  78.57
2437.21 3357.16  78.70
2438.35 3343.63  79.12
2438.77 3330.99  79.29
2439.75 3318.45  79.71
2439.87 3306.65  79.77
2440.52 3295.67  80.11
2440.48 3284.27  80.09
2441.50 3278.44  80.77
2443.23 3284.40  82.14
2448.74 3419.08  87.53
2459.18 4218.13 101.43
2470.32 7651.03 126.22
2532.00 1019.63 130.87
2540.17 2916.85 112.83
2543.25 3276.27 109.29
2533.19 3255.41 120.36
2503.37 3131.20 146.08
2445.57 2973.42 188.61
2331.74 2723.89 262.81
2114.98 2344.02 392.21
1683.09 1728.61 634.72
1946.21 2983.35 506.08
5457.32 714.76 875.98
5300.28 1536.16 680.67
5131.53 2194.17 468.05
5047.99 2532.30 353.70
5006.78 2716.29 290.07
4987.05 2819.71 253.99
4978.86 2877.51 234.74
4976.73 2910.84 226.82
4977.04 2938.59 226.54
4977.22 2974.13 229.83
4976.59 3000.84 232.51
4976.05 2980.10 233.18
4976.85 2852.55 232.19
4981.48 2373.86 230.04
4990.04 1468.65 229.65
4997.54 831.78 232.55
5000.63 1152.66 236.28
5000.32 2274.79 238.43
4998.94 3600.55 238.19
4998.80 4544.27 235.56
5002.28 4694.55 231.38
5010.44 4100.86 228.14
5019.95 3396.00 228.43
5025.79 3052.71 230.92
5027.95 2963.02 232.93
5028.87 2943.43 234.47
5029.48 2947.67 236.13
5029.96 2948.86 240.39
5028.43 2925.30 252.76
5020.58 2865.76 279.45
4999.67 2757.15 327.84
4954.54 2574.22 410.15
4863.96 2266.02 550.36
4682.72 1722.26 800.18
4323.13 739.15 1259.19
4265.34 648.35 1355.39
7783.54   2.37 1720.23
7619.55 1122.03 1186.42
7514.50 1885.31 811.68
7468.38 2297.67 607.94
7450.33 2533.95 491.12
7445.80 2675.76 421.44
7447.69 2762.77 379.36
7452.25 2816.84 354.10
7457.56 2851.49 339.01
7462.91 2876.00 329.71
7468.36 2897.03 323.63
7474.21 2920.69 319.57
7480.77 2954.11 317.19
7487.98 3004.35 316.72
7494.91 3066.33 318.41
7500.07 3110.12 321.76
7502.65 3098.25 325.44
7503.06 3018.34 328.15
7502.45 2892.72 329.19
7502.14 2769.36 328.51
7503.22 2704.34 326.70
7506.06 2725.67 324.86
7509.82 2804.38 324.06
7513.00 2886.58 324.45
7514.67 2945.80 325.29
7514.75 2983.01 325.61
7513.60 3004.38 324.51
7511.88 3016.56 321.39
7510.40 3026.64 316.37
7509.70 3038.88 310.20
7509.91 3053.86 303.80
7510.86 3070.60 297.80
7512.27 3087.97 292.52
7513.92 3105.28 288.04
7515.64 3122.23 284.32
7517.31 3138.69 281.29
7518.86 3154.69 278.86
7520.24 3170.30 276.96
7521.39 3185.58 275.53
7522.28 3200.53 274.53
7522.86 3215.22 273.94
7523.09 3229.67 273.75
7522.92 3243.89 273.94
7522.30 3257.89 274.50
7521.18 3271.65 275.45
7519.49 3285.21 276.79
7517.16 3298.50 278.54
7514.15 3311.54 280.69
7510.37 3324.33 283.27
7505.72 3336.83 286.29
7500.16 3349.05 289.76
7493.56 3360.92 293.71
7485.83 3372.39 298.18
7476.84 3383.51 303.19
7466.43 3394.17 308.79
7454.42 3404.26 315.05
7440.63 3413.80 322.01
7424.93 3422.74 329.71
7406.89 3430.87 338.30
7386.52 3438.35 347.74
7363.00 3444.78 358.35
7337.25 3450.75 369.68
7308.08 3455.86 382.22
7289.75 3467.63 389.88
  0.00   0.00   0.00
  0.00   0.00   0.00
  0.00   0.00   0.00
  0.00   0.00   0.00
  0.00   0.00   0.00
  0.00   0.00   0.00
  0.00   0.00   0.00
  0.00   0.00   0.00
  0.00   0.00   0.00
3503.13 3521.78 247.78
3179.07 3616.74 199.64
3006.29 3656.94 173.92
2888.70 3679.50 156.15
2806.96 3690.47 143.58
2741.85 3696.33 133.38
2690.72 3697.72 125.20
2647.07 3696.97 118.07
2611.56 3693.78 112.14
2580.45 3689.46 106.81
2554.95 3683.55 102.33
2532.29 3677.03  98.25
2513.86 3669.32  94.83
2497.40 3661.14  91.70
2484.26 3651.86  89.11
2472.50 3642.44  86.72
2463.46 3632.12  84.82
2455.45 3621.74  83.08
2449.71 3610.56  81.78
2444.64 3599.36  80.59
2441.46 3587.40  79.80
2438.64 3575.56  79.08
2437.37 3563.05  78.73
2436.18 3550.86  78.40
2436.24 3538.07  78.40
2436.09 3525.73  78.35
2436.93 3512.93  78.62
2437.30 3500.76  78.75
2438.42 3488.31  79.16
2438.82 3476.66  79.32
2439.79 3465.15  79.74
2439.90 3454.28  79.79
2440.54 3444.17  80.13
2440.49 3433.67  80.10
2441.51 3428.37  80.78
2443.23 3434.12  82.14
2448.74 3560.32  87.53
2459.18 4307.55 101.43
2470.32 7516.41 126.22
2532.00 1318.20 130.86
2540.17 3094.18 112.83
2543.26 3430.51 109.29
2533.20 3411.80 120.35
2503.38 3297.51 146.07
2445.59 3152.87 188.59
2331.79 2924.29 262.77
2115.07 2577.39 392.14
1683.23 2017.39 634.62
1944.53 3177.45 506.95
5457.14 1067.40 875.88
5300.39 1824.89 680.88
5131.58 2430.04 468.16
5048.01 2740.84 353.77
5006.79 2909.82 290.11
4987.05 3004.77 254.02
4978.86 3057.89 234.75
4976.73 3088.64 226.83
4977.03 3114.49 226.55
4977.22 3147.76 229.83
4976.59 3172.78 232.51
4976.05 3153.40 233.18
4976.85 3033.96 232.19
4981.48 2585.62 230.04
4990.04 1737.83 229.65
4997.54 1140.22 232.54
5000.63 1440.68 236.27
5000.32 2492.60 238.43
4998.94 3736.13 238.19
4998.80 4621.68 235.56
5002.28 4762.96 231.38
5010.44 4205.71 228.14
5019.95 3543.65 228.43
5025.79 3221.34 230.92
5027.95 3137.12 232.93
5028.87 3118.77 234.47
5029.48 3122.77 236.13
5029.95 3124.08 240.39
5028.43 3102.53 252.76
5020.58 3047.77 279.44
4999.67 2947.94 327.82
4954.55 2779.94 410.12
4863.98 2496.76 550.31
4682.76 1997.18 800.09
4323.21 1094.33 1259.03
4264.87 1010.20 1355.88
7783.49 410.09 1720.19
7619.56 1439.99 1186.50
7514.50 2142.24 811.72
7468.38 2521.65 607.96
7450.33 2739.02 491.13
7445.80 2869.47 421.44
7447.69 2949.45 379.36
7452.25 2999.19 354.11
7457.56 3031.09 339.01
7462.91 3053.62 329.71
7468.36 3073.04 323.63
7474.21 3095.21 319.57
7480.77 3126.69 317.19
7487.98 3174.15 316.72
7494.91 3232.85 318.41
7500.07 3274.24 321.76
7502.65 3262.64 325.44
7503.06 3186.63 328.15
7502.45 3067.67 329.18
7502.13 2951.08 328.51
7503.22 2889.73 326.70
7506.06 2909.83 324.86
7509.82 2983.84 324.05
7513.01 3061.18 324.45
7514.67 3116.83 325.29
7514.75 3151.71 325.61
7513.60 3171.66 324.51
7511.89 3182.89 321.39
7510.40 3192.12 316.37
7509.71 3203.34 310.21
7509.92 3217.14 303.82
7510.86 3232.58 297.82
7512.27 3248.64 292.55
7513.92 3264.68 288.08
7515.63 3280.38 284.37
7517.30 3295.64 281.35
7518.84 3310.48 278.94
7520.21 3324.97 277.05
7521.34 3339.14 275.63
7522.21 3353.04 274.66
7522.77 3366.68 274.09
7522.98 3380.10 273.91
7522.79 3393.31 274.12
7522.14 3406.30 274.71
7520.98 3419.10 275.69
7519.26 3431.71 277.06
7516.89 3444.05 278.83
7513.83 3456.19 281.01
7510.00 3468.07 283.62
7505.29 3479.66 286.68
7499.67 3491.02 290.18
7493.01 3502.05 294.16
7485.21 3512.71 298.67
7476.14 3523.03 303.71
7465.65 3532.90 309.35
7453.57 3542.27 315.64
7439.69 3551.12 322.65
7423.89 3559.41 330.39
7405.77 3567.01 339.01
7385.28 3573.97 348.50
7361.68 3579.95 359.14
7335.83 3585.51 370.51
7306.60 3590.32 383.07
7288.45 3601.36 390.65
  0.00   0.00   0.00
  0.00   0.00   0.00
  0.00   0.00   0.00
  0.00   0.00   0.00
  0.00   0.00   0.00
  0.00   0.00   0.00
  0.00   0.00   0.00
  0.00   0.00   0.00
  0.00   0.00   0.00
3506.72 3667.59 248.42
3182.36 3753.58 200.22
3009.03 3790.03 174.42
2890.91 3810.44 156.57
2808.70 3820.43 143.92
2743.33 3825.73 133.68
2692.20 3826.99 125.51
2648.44 3826.32 118.36
2612.81 3823.39 112.41
2581.57 3819.51 107.06
2555.97 3814.11 102.57
2533.21 3808.10  98.47
2514.65 3801.11  95.03
2498.08 3793.72  91.87
2484.89 3785.29  89.27
2473.06 3776.71  86.88
2463.97 3767.30  84.96
2455.90 3757.88  83.21
2450.10 3747.72  81.90
2444.98 3737.56  80.70
2441.76 3726.73  79.90
2438.89 3716.01  79.17
2437.59 3704.61  78.81
2436.36 3693.51  78.47
2436.39 3681.90  78.46
2436.21 3670.70  78.41
2437.04 3659.08  78.67
2437.38 3648.04  78.79
2438.49 3636.75  79.19
2438.87 3626.16  79.35
2439.83 3615.68  79.76
2439.92 3605.80  79.81
2440.56 3596.64  80.14
2440.50 3587.09  80.12
2441.52 3582.34  80.79
2443.24 3587.78  82.15
2448.74 3704.29  87.53
2459.18 4393.32 101.43
2470.32 7350.86 126.21
2471.20 9826.59 138.94
2531.38 210.62 139.90
2532.00 1639.11 130.86
2540.17 3277.66 112.82
2543.26 3587.90 109.28
2533.20 3571.22 120.34
2503.39 3467.16 146.05
2445.61 3336.02 188.57
2331.83 3129.37 262.74
2115.16 2816.07 392.07
1683.36 2313.04 634.52
1943.02 3371.15 507.75
5456.98 1435.49 875.78
5300.49 2125.16 681.06
5131.63 2674.73 468.26
5048.03 2956.85 353.83
5006.79 3110.13 290.14
4987.06 3196.27 254.04
4978.86 3244.44 234.77
4976.73 3272.41 226.84
4977.03 3296.17 226.55
4977.22 3326.90 229.83
4976.59 3349.99 232.51
4976.05 3332.12 233.18
4976.84 3221.88 232.19
4981.48 2808.06 230.03
4990.04 2024.60 229.65
4997.54 1472.50 232.54
5000.63 1749.64 236.27
5000.32 2721.59 238.43
4998.94 3871.18 238.19
4998.80 4690.18 235.56
5002.28 4820.96 231.38
5010.44 4305.83 228.14
5019.95 3693.21 228.43
5025.79 3394.69 230.92
5027.95 3316.78 232.93
5028.87 3299.85 234.47
5029.48 3303.59 236.12
5029.95 3304.93 240.38
5028.43 3285.41 252.75
5020.58 3235.71 279.43
4999.67 3144.96 327.81
4954.55 2992.53 410.09
4863.99 2735.60 550.27
4682.79 2282.70 800.01
4323.28 1463.90 1258.88
4264.45 1387.17 1356.31
7783.45 837.03 1720.14
7619.56 1772.16 1186.57
7514.50 2410.13 811.75
7468.38 2754.91 607.98
7450.33 2952.37 491.14
7445.80 3070.86 421.45
7447.69 3143.46 379.36
7452.25 3188.65 354.11
7457.56 3217.64 339.01
7462.91 3238.07 329.71
7468.36 3255.89 323.63
7474.21 3276.33 319.57
7480.77 3305.57 317.20
7487.98 3349.86 316.72
7494.91 3404.40 318.41
7500.07 3442.77 321.76
7502.65 3431.72 325.44
7503.06 3360.59 328.15
7502.45 3249.76 329.18
7502.13 3141.16 328.51
7503.22 3084.09 326.70
7506.06 3102.73 324.86
7509.82 3171.45 324.05
7513.01 3243.08 324.45
7514.68 3294.62 325.29
7514.76 3326.86 325.61
7513.61 3345.21 324.51
7511.89 3355.45 321.40
7510.41 3363.81 316.38
7509.72 3373.98 310.22
7509.93 3386.52 303.83
7510.87 3400.60 297.84
7512.28 3415.26 292.58
7513.92 3429.92 288.11
7515.63 3444.26 284.42
7517.29 3458.22 281.41
7518.82 3471.82 279.01
7520.18 3485.10 277.13
7521.30 3498.06 275.73
7522.16 3510.80 274.77
7522.70 3523.30 274.22
7522.88 3535.59 274.06
7522.66 3547.71 274.29
7521.99 3559.63 274.91
7520.80 3571.38 275.91
7519.04 3582.92 277.30
7516.64 3594.22 279.10
7513.53 3605.32 281.31
7509.65 3616.20 283.94
7504.89 3626.81 287.03
7499.23 3637.22 290.55
7492.51 3647.31 294.57
7484.64 3657.07 299.11
7475.50 3666.48 304.19
7464.95 3675.49 309.86
7452.79 3684.10 316.19
7438.82 3692.20 323.24
7422.94 3699.83 331.01
7404.73 3706.82 339.67
7384.18 3713.25 349.18
7360.50 3718.76 359.86
7334.56 3723.89 371.26
7305.25 3728.32 383.84
7287.23 3738.49 391.36
  0.00   0.00   0.00
  0.00   0.00   0.00
  0.00   0.00   0.00
  0.00   0.00   0.00
  0.00   0.00   0.00
  0.00   0.00   0.00
  0.00   0.00   0.00
  0.00   0.00   0.00
  0.00   0.00   0.00
3509.28 3816.65 248.90
3185.06 3893.20 200.71
3011.37 3925.77 174.85
2893.01 3943.80 156.96
2810.53 3952.74 144.27
2744.79 3957.52 133.98
2693.48 3958.66 125.77
2649.64 3958.05 118.61
2613.93 3955.41 112.65
2582.58 3951.99 107.29
2556.86 3947.25 102.77
2534.02 3941.84  98.66
2515.38 3935.55  95.21
2498.72 3929.03  92.03
2485.46 3921.49  89.43
2473.57 3913.83  87.02
2464.43 3905.42  85.09
2456.30 3896.98  83.33
2450.45 3887.87  82.01
2445.29 3878.78  80.80
2442.03 3869.06  79.99
2439.12 3859.49  79.25
2437.78 3849.31  78.89
2436.52 3839.38  78.53
2436.53 3828.97  78.52
2436.33 3818.94  78.46
2437.13 3808.54  78.71
2437.46 3798.67  78.83
2438.54 3788.58  79.22
2438.92 3779.11  79.38
2439.86 3769.74  79.78
2439.95 3760.87  79.83
2440.57 3752.70  80.16
2440.51 3744.14  80.13
2441.52 3739.93  80.80
2443.24 3744.97  82.15
2448.75 3850.46  87.54
2459.18 4474.40 101.42
2470.32 7153.28 126.21
2471.20 9401.36 138.94
2531.37 684.73 139.90
2532.00 1981.35 130.86
2540.17 3466.37 112.82
2543.26 3747.64 109.28
2533.20 3732.99 120.34
2503.39 3639.80 146.04
2445.63 3522.75 188.55
2331.87 3338.94 262.70
2115.24 3060.41 392.01
1683.47 2615.01 634.43
1941.66 3565.20 508.46
5456.83 1818.04 875.70
5300.58 2436.14 681.23
5131.67 2927.52 468.35
5048.05 3179.62 353.88
5006.80 3316.59 290.18
4987.06 3393.62 254.06
4978.86 3436.64 234.78
4976.73 3461.68 226.85
4977.03 3483.14 226.56
4977.21 3511.06 229.83
4976.59 3532.02 232.51
4976.05 3515.77 233.18
4976.84 3415.75 232.19
4981.48 3040.25 230.03
4990.04 2328.93 229.65
4997.54 1827.26 232.54
5000.63 2078.56 236.27
5000.32 2961.05 238.43
4998.94 4005.41 238.19
4998.80 4750.01 235.56
5002.28 4868.92 231.38
5010.44 4401.22 228.14
5019.95 3843.92 228.43
5025.79 3572.50 230.92
5027.95 3501.63 232.93
5028.86 3486.28 234.47
5029.48 3489.71 236.12
5029.95 3491.04 240.38
5028.43 3473.62 252.75
5020.58 3429.20 279.42
4999.67 3348.01 327.79
4954.56 3211.84 410.07
4864.01 2982.27 550.23
4682.83 2577.78 799.94
4323.34 1846.31 1258.75
4264.07 1777.37 1356.69
7783.41 1281.41 1720.11
7619.57 2117.65 1186.63
7514.51 2688.23 811.78
7468.38 2996.72 607.99
7450.33 3173.36 491.14
7445.80 3279.36 421.45
7447.69 3344.28 379.36
7452.25 3384.67 354.11
7457.56 3410.61 339.01
7462.91 3428.93 329.71
7468.36 3444.99 323.63
7474.21 3463.51 319.57
7480.77 3490.16 317.20
7487.98 3530.80 316.72
7494.91 3580.56 318.41
7500.07 3615.54 321.76
7502.65 3605.24 325.44
7503.06 3539.90 328.15
7502.44 3438.43 329.18
7502.13 3339.11 328.51
7503.22 3286.88 326.70
7506.06 3303.92 324.86
7509.82 3366.68 324.05
7513.01 3431.89 324.44
7514.68 3478.80 325.29
7514.76 3508.10 325.61
7513.61 3524.71 324.51
7511.90 3533.88 321.40
7510.42 3541.34 316.39
7509.72 3550.41 310.23
7509.93 3561.64 303.84
7510.87 3574.26 297.86
7512.28 3587.43 292.60
7513.92 3600.62 288.15
7515.63 3613.53 284.46
7517.28 3626.09 281.46
7518.81 3638.35 279.07
7520.15 3650.32 277.21
7521.26 3662.00 275.82
7522.10 3673.48 274.87
7522.63 3684.74 274.34
7522.80 3695.83 274.20
7522.55 3706.75 274.45
7521.85 3717.48 275.09
7520.64 3728.06 276.10
7518.84 3738.45 277.52
7516.41 3748.62 279.34
7513.26 3758.63 281.57
7509.34 3768.44 284.23
7504.54 3778.01 287.34
7498.82 3787.38 290.90
7492.05 3796.48 294.95
7484.12 3805.27 299.52
7474.92 3813.75 304.63
7464.30 3821.90 310.33
7452.06 3829.64 316.70
7438.03 3836.96 323.77
7422.09 3843.85 331.56
7403.80 3850.19 340.26
7383.16 3855.99 349.81
7359.39 3860.94 360.52
7333.34 3865.56 371.97
7303.93 3869.54 384.59
7286.13 3878.79 392.01
  0.00   0.00   0.00
  0.00   0.00   0.00
  0.00   0.00   0.00
  0.00   0.00   0.00
  0.00   0.00   0.00
  0.00   0.00   0.00
  0.00   0.00   0.00
  0.00   0.00   0.00
  0.00   0.00   0.00
3511.10 3969.11 249.26
3187.22 4035.66 201.11
3013.29 4064.05 175.21
2894.80 4079.78 157.30
2812.14 4087.42 144.59
2746.16 4091.58 134.25
2694.71 4092.55 126.02
2650.71 4092.08 118.84
2614.87 4089.84 112.85
2583.46 4086.74 107.48
2557.66 4082.52 102.96
2534.74 4077.82  98.83
2516.03 4072.28  95.37
2499.30 4066.57  92.18
2485.96 4060.03  89.56
2474.02 4053.32  87.14
2464.83 4045.95  85.21
2456.66 4038.55  83.44
2450.77 4030.53  82.10
2445.56 4022.60  80.88
2442.26 4014.11  80.07
2439.32 4005.71  79.33
2437.96 3996.78  78.95
2436.67 3988.08  78.59
2436.65 3978.94  78.57
2436.43 3970.13  78.50
2437.21 3961.02  78.75
2437.52 3952.34  78.86
2438.59 3943.50  79.25
2438.96 3935.18  79.40
2439.89 3926.96  79.80
2439.97 3919.18  79.85
2440.59 3912.01  80.17
2440.52 3904.49  80.14
2441.53 3900.85  80.80
2443.24 3905.42  82.16
2448.75 3998.92  87.54
2459.18 4552.16 101.42
2470.33 6927.62 126.20
2471.21 8926.04 138.94
2531.37 1189.73 139.90
2531.99 2342.10 130.85
2540.17 3660.02 112.82
2543.26 3909.60 109.28
2533.21 3897.13 120.33
2503.40 3815.45 146.03
2445.64 3712.97 188.54
2331.90 3552.15 262.67
2115.31 3309.49 391.96
1683.57 2921.78 634.36
1940.45 3758.55 509.09
5456.70 2213.63 875.63
5300.66 2756.91 681.37
5131.71 3187.81 468.43
5048.07 3408.73 353.92
5006.81 3528.71 290.20
4987.06 3596.16 254.08
4978.86 3633.93 234.79
4976.72 3655.95 226.86
4977.02 3674.93 226.56
4977.21 3699.73 229.83
4976.58 3718.38 232.51
4976.04 3703.94 233.18
4976.84 3615.09 232.19
4981.48 3281.53 230.03
4990.04 2649.22 229.64
4997.54 2202.80 232.54
5000.63 2426.37 236.27
5000.32 3210.57 238.43
4998.94 4139.20 238.19
4998.80 4801.34 235.56
5002.28 4907.49 231.38
5010.44 4491.73 228.14
5019.95 3996.03 228.43
5025.79 3754.31 230.92
5027.95 3691.24 232.93
5028.86 3677.56 234.47
5029.48 3680.62 236.12
5029.95 3681.89 240.38
5028.43 3666.69 252.74
5020.58 3627.67 279.41
4999.67 3556.53 327.78
4954.56 3437.19 410.05
4864.02 3236.06 550.19
4682.85 2881.45 799.87
4323.40 2240.65 1258.64
4263.75 2179.68 1357.02
7783.38 1741.90 1720.08
7619.57 2475.37 1186.68
7514.51 2975.91 811.80
7468.38 3246.49 608.00
7450.33 3401.47 491.15
7445.80 3494.43 421.45
7447.69 3551.41 379.36
7452.25 3586.83 354.11
7457.56 3609.54 339.01
7462.92 3625.64 329.71
7468.36 3639.77 323.63
7474.21 3656.28 319.57
7480.77 3680.05 317.20
7487.98 3716.32 316.72
7494.91 3760.84 318.41
7500.07 3792.04 321.76
7502.65 3782.75 325.44
7503.05 3724.21 328.15
7502.44 3633.28 329.18
7502.13 3544.47 328.51
7503.22 3497.90 326.70
7506.06 3512.98 324.86
7509.82 3568.94 324.05
7513.01 3627.08 324.44
7514.68 3668.86 325.29
7514.76 3694.94 325.61
7513.61 3709.63 324.51
7511.90 3717.70 321.40
7510.42 3724.21 316.39
7509.73 3732.14 310.24
7509.94 3741.99 303.86
7510.88 3753.09 297.88
7512.28 3764.70 292.63
7513.92 3776.31 288.18
7515.62 3787.70 284.50
7517.27 3798.79 281.51
7518.79 3809.61 279.12
7520.12 3820.17 277.27
7521.23 3830.49 275.90
7522.06 3840.62 274.97
7522.57 3850.56 274.45
7522.72 3860.36 274.33
7522.45 3870.00 274.59
7521.73 3879.47 275.24
7520.49 3888.81 276.28
7518.67 3897.99 277.72
7516.20 3906.98 279.56
7513.03 3915.82 281.81
7509.07 3924.46 284.49
7504.23 3932.93 287.63
7498.46 3941.19 291.21
7491.64 3949.24 295.28
7483.65 3957.00 299.88
7474.40 3964.51 305.02
7463.72 3971.67 310.75
7451.43 3978.50 317.14
7437.34 3984.96 324.24
7421.34 3991.04 332.06
7402.97 3996.64 340.79
7382.24 4001.73 350.37
7358.41 4006.11 361.11
7332.26 4010.20 372.59
7302.85 4013.76 385.21
7285.15 4021.94 392.58
  0.00   0.00   0.00
  0.00   0.00   0.00
  0.00   0.00   0.00
  0.00   0.00   0.00
  0.00   0.00   0.00
  0.00   0.00   0.00
  0.00   0.00   0.00
  0.00   0.00   0.00
  0.00   0.00   0.00
3513.06 4123.36 249.62
3189.30 4180.10 201.48
3015.07 4204.28 175.54
2896.20 4217.70 157.57
2813.42 4224.29 144.84
2747.39 4227.81 134.49
2695.79 4228.64 126.24
2651.63 4228.30 119.04
2615.69 4226.39 113.03
2584.20 4223.79 107.65
2558.34 4220.16 103.11
2535.35 4216.12  98.98
2516.57 4211.35  95.50
2499.80 4206.40  92.31
2486.42 4200.76  89.68
2474.43 4195.05  87.25
2465.17 4188.77  85.31
2456.96 4182.42  83.53
2451.04 4175.55  82.19
2445.79 4168.71  80.96
2442.47 4161.47  80.14
2439.50 4154.32  79.39
2438.11 4146.72  79.01
2436.80 4139.29  78.64
2436.76 4131.49  78.62
2436.51 4123.95  78.54
2437.28 4116.16  78.78
2437.58 4108.77  78.89
2438.64 4101.23  79.28
2438.99 4094.13  79.42
2439.92 4087.07  79.82
2439.99 4080.41  79.86
2440.60 4074.29  80.18
2440.53 4067.86  80.15
2441.53 4064.76  80.81
2443.25 4068.74  82.16
2448.75 4149.67  87.54
2459.18 4626.92 101.42
2470.33 6678.28 126.20
2471.21 8404.20 138.94
2536.09 279.04 149.41
2531.37 1724.05 139.90
2531.99 2719.03 130.85
2540.17 3858.16 112.82
2543.26 4073.69 109.28
2533.21 4063.24 120.33
2503.41 3993.28 146.03
2445.66 3906.09 188.52
2331.93 3768.94 262.65
2115.37 3562.49 391.91
1683.65 3233.18 634.29
1939.41 3951.29 509.64
5456.59 2620.99 875.57
5300.73 3086.21 681.50
5131.75 3454.72 468.50
5048.08 3643.43 353.96
5006.82 3745.94 290.23
4987.06 3803.53 254.09
4978.86 3835.80 234.80
4976.72 3854.69 226.86
4977.02 3871.06 226.56
4977.21 3892.46 229.84
4976.58 3908.60 232.51
4976.04 3896.16 233.18
4976.84 3819.31 232.19
4981.48 3531.01 230.03
4990.04 2984.26 229.64
4997.54 2597.97 232.54
5000.63 2791.12 236.27
5000.32 3469.89 238.43
4998.94 4273.30 238.19
4998.80 4846.38 235.56
5002.28 4937.80 231.38
5010.44 4577.24 228.14
5019.95 4148.67 228.43
5025.79 3939.50 230.92
5027.95 3885.01 232.93
5028.86 3873.19 234.47
5029.48 3875.85 236.12
5029.95 3876.97 240.38
5028.43 3863.94 252.74
5020.58 3830.59 279.40
4999.67 3769.89 327.77
4954.56 3667.87 410.03
4864.03 3496.13 550.17
4682.88 3193.25 799.82
4323.44 2645.83 1258.54
4263.48 2593.73 1357.30
7783.35 2216.94 1720.05
7619.58 2844.05 1186.72
7514.51 3272.06 811.82
7468.38 3503.36 608.01
7450.33 3635.85 491.15
7445.80 3715.40 421.45
7447.69 3764.13 379.37
7452.25 3794.44 354.11
7457.56 3813.78 339.01
7462.92 3827.53 329.71
7468.36 3839.65 323.63
7474.21 3853.95 319.57
7480.77 3874.68 317.20
7487.98 3906.12 316.72
7494.91 3944.86 318.41
7500.07 3971.84 321.76
7502.65 3963.62 325.44
7503.05 3912.71 328.15
7502.44 3833.62 329.18
7502.13 3756.36 328.51
7503.22 3715.95 326.70
7506.06 3729.06 324.86
7509.82 3777.57 324.05
7513.01 3828.00 324.44
7514.68 3864.17 325.29
7514.76 3886.74 325.61
7513.62 3899.40 324.51
7511.90 3906.32 321.40
7510.42 3911.84 316.39
7509.73 3918.61 310.25
7509.94 3927.05 303.87
7510.88 3936.57 297.89
7512.28 3946.53 292.65
7513.92 3956.49 288.20
7515.62 3966.26 284.53
7517.26 3975.78 281.55
7518.78 3985.08 279.17
7520.10 3994.15 277.33
7521.20 4003.02 275.97
7522.02 4011.72 275.05
7522.51 4020.28 274.54
7522.65 4028.70 274.43
7522.37 4036.99 274.71
7521.63 4045.14 275.38
7520.36 4053.18 276.44
7518.52 4061.08 277.89
7516.02 4068.82 279.75
7512.82 4076.42 282.02
7508.82 4083.84 284.72
7503.95 4091.13 287.88
7498.14 4098.20 291.48
7491.28 4105.13 295.58
7483.25 4111.80 300.20
7473.95 4118.24 305.36
7463.22 4124.40 311.11
7450.88 4130.28 317.52
7436.73 4135.83 324.64
7420.65 4141.07 332.50
7402.23 4145.87 341.25
7381.49 4150.25 350.84
7357.57 4154.10 361.61
7331.34 4157.64 373.13
7301.89 4160.69 385.76
7284.31 4167.71 393.07
  0.00   0.00   0.00
  0.00   0.00   0.00
  0.00   0.00   0.00
  0.00   0.00   0.00
  0.00   0.00   0.00
  0.00   0.00   0.00
  0.00   0.00   0.00
  0.00   0.00   0.00
  0.00   0.00   0.00
3514.85 4279.72 249.95
3191.01 4326.44 201.79
3016.50 4346.33 175.80
2897.54 4357.36 157.82
2814.64 4362.76 145.07
2748.33 4365.71 134.68
2696.60 4366.38 126.41
2652.41 4366.08 119.20
2616.42 4364.55 113.19
2584.89 4362.40 107.80
2558.93 4359.43 103.25
2535.87 4356.11  99.10
2517.03 4352.18  95.61
2500.20 4348.08  92.41
2486.79 4343.44  89.78
2474.77 4338.69  87.35
2465.48 4333.52  85.39
2457.22 4328.31  83.60
2451.27 4322.63  82.26
2445.99 4316.96  81.03
2442.64 4310.95  80.20
2439.64 4305.05  79.44
2438.24 4298.78  79.06
2436.90 4292.65  78.68
2436.85 4286.24  78.66
2436.59 4280.03  78.58
2437.34 4273.58  78.81
2437.63 4267.45  78.91
2438.68 4261.23  79.30
2439.02 4255.39  79.44
2439.94 4249.58  79.83
2440.00 4244.08  79.87
2440.61 4239.02  80.19
2440.53 4233.71  80.15
2441.54 4231.15  80.82
2443.25 4234.51  82.17
2448.75 4301.98  87.54
2459.18 4698.85 101.42
2470.33 6405.37 126.19
2471.22 7841.87 138.94
2465.12 9477.24 150.25
2536.09 1081.60 149.41
2531.36 2283.11 139.89
2531.99 3111.79 130.85
2540.17 4060.08 112.81
2543.26 4239.63 109.27
2533.21 4230.99 120.32
2503.41 4173.14 146.02
2445.67 4101.20 188.51
2331.96 3988.46 262.63
2115.42 3818.85 391.87
1683.72 3548.77 634.24
1938.54 4143.16 510.09
5456.50 3038.50 875.52
5300.79 3423.14 681.61
5131.77 3727.38 468.56
5048.09 3883.02 354.00
5006.82 3967.64 290.25
4987.06 4015.11 254.11
4978.85 4041.72 234.81
4976.72 4057.33 226.87
4977.02 4070.92 226.57
4977.21 4088.77 229.84
4976.58 4102.21 232.51
4976.04 4091.85 233.18
4976.84 4027.85 232.19
4981.48 3787.58 230.03
4990.04 3332.02 229.64
4997.54 3010.42 232.54
5000.63 3170.58 236.27
5000.32 3736.67 238.43
4998.94 4406.31 238.19
4998.80 4883.92 235.56
5002.28 4960.59 231.38
5010.44 4659.75 228.14
5019.95 4302.20 228.43
5025.79 4127.82 230.92
5027.95 4082.47 232.93
5028.86 4072.62 234.47
5029.47 4074.87 236.12
5029.95 4075.84 240.37
5028.42 4065.12 252.73
5020.58 4037.52 279.40
4999.67 3987.37 327.76
4954.57 3903.21 410.02
4864.04 3761.58 550.14
4682.90 3511.88 799.77
4323.48 3060.27 1258.46
4263.25 3017.15 1357.54
7783.33 2704.35 1720.02
7619.58 3222.03 1186.76
7514.51 3575.56 811.84
7468.38 3766.52 608.02
7450.33 3875.91 491.16
7445.80 3941.60 421.46
7447.69 3981.81 379.37
7452.25 4006.75 354.11
7457.56 4022.73 339.01
7462.92 4034.05 329.71
7468.36 4044.18 323.63
7474.21 4055.97 319.57
7480.77 4073.34 317.20
7487.98 4099.75 316.72
7494.91 4132.21 318.41
7500.07 4154.77 321.76
7502.65 4147.69 325.44
7503.05 4104.90 328.15
7502.44 4038.73 329.18
7502.13 3974.06 328.51
7503.22 3940.18 326.70
7506.06 3951.23 324.85
7509.83 3991.79 324.05
7513.01 4033.88 324.44
7514.68 4064.06 325.29
7514.77 4082.87 325.61
7513.62 4093.41 324.51
7511.91 4099.12 321.40
7510.43 4103.65 316.40
7509.74 4109.23 310.25
7509.95 4116.18 303.88
7510.88 4124.06 297.91
7512.29 4132.30 292.66
7513.92 4140.53 288.23
7515.62 4148.62 284.56
7517.26 4156.51 281.58
7518.76 4164.22 279.22
7520.09 4171.74 277.38
7521.17 4179.10 276.03
7521.98 4186.32 275.12
7522.47 4193.43 274.62
7522.59 4200.40 274.53
7522.30 4207.29 274.82
7521.54 4214.05 275.50
7520.26 4220.71 276.57
7518.40 4227.27 278.03
7515.87 4233.71 279.91
7512.64 4240.00 282.20
7508.61 4246.15 284.92
7503.71 4252.19 288.09
7497.88 4258.07 291.71
7490.99 4263.80 295.82
7482.92 4269.33 300.46
7473.58 4274.68 305.64
7462.80 4279.79 311.42
7450.38 4284.66 317.87
7436.21 4289.28 325.00
7420.09 4293.61 332.87
7401.64 4297.61 341.63
7380.83 4301.24 351.25
7356.83 4304.37 362.06
7330.54 4307.33 373.59
7301.03 4309.90 386.25
7283.54 4315.75 393.52
  0.00   0.00   0.00
  0.00   0.00   0.00
  0.00   0.00   0.00
  0.00   0.00   0.00
  0.00   0.00   0.00
  0.00   0.00   0.00
  0.00   0.00   0.00
  0.00   0.00   0.00
  0.00   0.00   0.00
3515.94 4438.14 250.17
3192.23 4474.46 202.02
3017.62 4489.96 176.01
2898.57 4498.64 158.01
2815.47 4502.87 145.23
2749.17 4505.09 134.85
2697.34 4505.64 126.56
2653.04 4505.39 119.34
2617.00 4504.18 113.32
2585.39 4502.49 107.92
2559.40 4500.16 103.36
2536.33 4497.59  99.21
2517.43 4494.49  95.71
2500.54 4491.28  92.50
2487.07 4487.63  89.85
2475.03 4483.90  87.42
2465.72 4479.84  85.46
2457.44 4475.76  83.67
2451.46 4471.32  82.32
2446.16 4466.86  81.08
2442.78 4462.16  80.25
2439.76 4457.55  79.48
2438.34 4452.65  79.09
2436.99 4447.81  78.72
2436.92 4442.78  78.69
2436.65 4437.95  78.60
2437.39 4432.90  78.84
2437.67 4428.10  78.93
2438.71 4423.22  79.32
2439.04 4418.64  79.45
2439.96 4414.09  79.85
2440.02 4409.78  79.88
2440.62 4405.82  80.20
2440.54 4401.66  80.16
2441.54 4399.67  80.82
2443.25 4402.35  82.17
2448.75 4455.55  87.54
2459.18 4768.50 101.42
2470.33 6112.82 126.19
2471.22 7246.03 138.94
2465.13 8540.32 150.25
2536.09 1914.26 149.41
2535.17 766.50 149.37
2531.36 2863.28 139.89
2531.99 3517.75 130.84
2540.17 4265.39 112.81
2543.26 4406.99 109.27
2533.21 4400.14 120.32
2503.42 4354.91 146.01
2445.68 4298.49 188.50
2331.97 4210.25 262.61
2115.46 4078.11 391.84
1683.78 3867.75 634.19
1937.84 4334.71 510.46
5456.42 3464.81 875.48
5300.83 3766.49 681.69
5131.80 4004.78 468.60
5048.10 4126.70 354.02
5006.82 4192.93 290.27
